# .PCD v0.7 - Point Cloud Data file format
VERSION 0.7
FIELDS x y z
SIZE 4 4 4
TYPE F F F
COUNT 1 1 1
WIDTH 1024
HEIGHT 1
VIEWPOINT 0 0 0 1 0 0 0
POINTS 1024
DATA ascii
-0.033458 0.035374 -0.031020
-0.017522 0.187321 -0.019849
-0.088283 0.114383 0.044319
0.028970 0.100814 0.040299
-0.026052 0.036748 0.054051
-0.039971 0.112687 -0.017247
0.034896 0.038788 -0.000045
-0.078258 0.176400 -0.049032
-0.069308 0.061495 0.014544
0.020971 0.096646 -0.022304
-0.030494 0.096056 0.044954
-0.072209 0.155629 0.006308
-0.000573 0.131478 0.010908
0.020413 0.052120 0.045142
-0.083851 0.103422 -0.001650
-0.010669 0.038393 0.009306
-0.017785 0.078481 -0.038684
0.055369 0.071129 0.021382
-0.045606 0.127883 0.022305
0.005381 0.046485 -0.027071
-0.034443 0.153520 -0.007337
-0.052745 0.075360 -0.018280
-0.063063 0.035121 0.042091
-0.047231 0.033462 0.004526
0.001513 0.081484 0.057222
0.033429 0.116181 0.006363
-0.065484 0.084742 0.044207
-0.070517 0.146976 0.042003
-0.065082 0.148822 -0.029018
-0.002487 0.115552 0.040743
0.040165 0.071705 -0.009776
-0.006657 0.114661 -0.017486
-0.092633 0.130971 0.015234
-0.040497 0.063454 0.041422
-0.064951 0.126767 -0.008753
-0.087152 0.087476 0.023434
0.042787 0.044515 0.027427
0.015362 0.034471 0.021761
-0.032646 0.056352 -0.011399
0.009291 0.073906 -0.033036
-0.061571 0.111062 0.037031
-0.031669 0.035739 0.027262
-0.005504 0.054796 0.053803
-0.078535 0.077186 -0.006557
-0.026695 0.125077 0.002739
0.045605 0.091813 0.007171
0.034561 0.074095 0.039425
0.019859 0.123572 0.028422
-0.062873 0.099640 -0.017991
-0.072872 0.035555 0.001036
0.056241 0.052193 0.004186
0.009690 0.034473 -0.005183
-0.053861 0.152062 0.023108
-0.012194 0.163667 -0.013622
-0.007461 0.039147 0.034583
0.014084 0.123776 -0.007393
-0.017673 0.054041 -0.032598
-0.033827 0.090108 -0.024338
-0.021523 0.073947 0.052691
-0.026513 0.116639 0.032511
0.027872 0.052284 -0.019754
-0.066531 0.155586 -0.052333
-0.001226 0.095852 -0.031517
-0.015433 0.038822 -0.014187
-0.032502 0.177105 -0.004434
-0.055348 0.054711 -0.003388
-0.086118 0.152173 0.025022
-0.053278 0.047679 0.024652
-0.050241 0.140114 0.003401
-0.070492 0.126012 0.052539
-0.073418 0.169757 -0.027533
-0.085950 0.110378 0.021365
-0.051707 0.163863 0.002419
-0.089720 0.135201 0.038209
-0.060544 0.066053 0.033607
-0.081659 0.137613 -0.001800
0.009506 0.099064 0.048247
0.036880 0.101462 -0.009410
0.042207 0.089882 0.027785
-0.061191 0.173613 -0.061506
-0.043500 0.042437 0.043101
-0.046398 0.039711 -0.015284
-0.011080 0.097386 0.051740
0.018140 0.071324 0.050843
-0.077464 0.155549 -0.013904
0.010503 0.034732 0.042216
-0.031051 0.069318 -0.026458
-0.057746 0.131139 0.037577
-0.045504 0.083299 0.043710
-0.023422 0.053749 0.042499
-0.077602 0.099464 0.035714
0.027247 0.077469 -0.023334
0.036477 0.110061 0.024618
-0.028040 0.038261 0.000453
-0.010533 0.127013 0.027548
-0.022878 0.105870 -0.022514
0.018104 0.128017 0.010630
-0.043480 0.108484 0.039156
-0.062990 0.034197 0.016761
-0.076890 0.073356 0.029126
-0.063130 0.144906 -0.010120
-0.082081 0.074852 0.011529
0.052700 0.070244 0.003590
-0.010269 0.126825 -0.004418
-0.042764 0.126553 -0.005774
-0.009223 0.174168 -0.028567
0.042370 0.053396 -0.006799
-0.088154 0.121251 0.000301
0.010765 0.110575 -0.019167
0.056980 0.053869 0.022489
0.042531 0.062371 0.028755
0.026920 0.041816 0.033316
0.032145 0.036061 0.016464
0.022644 0.087561 0.048708
-0.005714 0.065579 -0.035147
-0.064311 0.169365 -0.042882
-0.026193 0.171192 -0.019019
-0.067780 0.083750 -0.017964
-0.069775 0.155761 0.026098
-0.064626 0.067476 -0.008467
-0.088144 0.088749 0.004472
-0.022858 0.119091 -0.012057
-0.020238 0.093808 -0.033542
0.013497 0.112635 0.038751
-0.089036 0.146068 0.010178
0.015329 0.059465 -0.028533
-0.060401 0.033598 -0.009162
0.025184 0.112665 -0.011429
-0.054498 0.097360 0.043259
-0.071930 0.112190 -0.008896
0.017630 0.038294 -0.018711
-0.055827 0.114722 -0.015284
-0.000577 0.034113 -0.018155
-0.023780 0.125538 0.018441
-0.049812 0.091281 -0.021690
0.005083 0.128731 0.027325
-0.016509 0.108590 0.041772
-0.092497 0.121493 0.030282
-0.010915 0.035619 0.049467
0.045899 0.041406 0.011234
0.004466 0.034403 0.010526
0.037125 0.086917 -0.015793
0.020736 0.034956 0.005922
-0.047496 0.034467 0.030364
-0.031496 0.076048 0.040909
-0.042206 0.166657 -0.010380
-0.077047 0.094796 -0.012538
-0.063345 0.159973 -0.018596
0.004520 0.066137 0.056056
-0.073388 0.111282 0.046617
-0.053523 0.055604 0.011720
-0.022323 0.039134 0.038711
-0.030485 0.038633 -0.015152
0.032343 0.059218 0.039614
-0.041701 0.153622 0.006259
-0.063972 0.045928 0.007717
-0.046679 0.062099 -0.012794
-0.017099 0.038323 0.022536
-0.019603 0.039346 -0.028238
-0.003786 0.082665 -0.037490
-0.079417 0.137236 0.049578
0.006486 0.047441 0.049765
-0.072170 0.158208 -0.037921
-0.021763 0.159801 -0.003449
-0.056495 0.047766 0.039518
0.012201 0.087895 -0.030874
-0.035162 0.034421 0.013333
-0.039965 0.128635 0.008111
-0.003883 0.038955 -0.004534
-0.012498 0.084278 0.057419
0.046122 0.080635 0.016170
0.041320 0.104267 0.012164
-0.065102 0.041033 0.029562
-0.088877 0.100994 0.011394
-0.028252 0.050761 -0.023405
-0.050156 0.119760 0.032673
-0.014589 0.128899 0.008637
-0.058961 0.145338 0.034083
0.001967 0.038507 0.024466
-0.038750 0.078282 -0.019148
-0.059206 0.155872 0.010949
-0.074756 0.067415 0.002534
0.061002 0.062364 0.012157
-0.050199 0.140132 0.017399
-0.051074 0.151654 -0.003937
-0.008496 0.070339 0.056555
-0.077240 0.084660 0.037208
0.031763 0.065347 -0.018741
0.034271 0.087612 0.040873
0.027177 0.112761 0.034214
0.044000 0.081852 -0.001802
0.028896 0.120556 0.018925
0.023137 0.040427 -0.006643
-0.092897 0.117368 0.012313
-0.017326 0.061189 0.051725
-0.038446 0.166779 0.002394
-0.089612 0.139257 0.025185
-0.030269 0.080511 -0.033568
-0.083257 0.147367 0.037063
0.000886 0.122970 -0.010405
0.042639 0.076452 0.028174
-0.007626 0.045174 -0.028662
-0.009888 0.103466 -0.023614
-0.077893 0.125180 -0.006897
-0.066859 0.156842 -0.006355
-0.024760 0.086559 0.052709
-0.049877 0.104205 -0.020322
-0.049966 0.057228 0.033480
-0.055500 0.074700 0.041850
-0.002496 0.103050 0.043967
-0.035474 0.051927 0.038323
-0.060096 0.033480 0.003701
-0.085140 0.125756 0.049465
-0.022744 0.066990 -0.036064
-0.062384 0.163119 -0.031594
0.024792 0.121532 -0.001137
-0.032988 0.034767 0.043706
0.007878 0.098941 -0.022767
0.007161 0.130043 0.000903
-0.069485 0.181423 -0.056396
0.000498 0.093870 0.055115
-0.066522 0.100090 0.041540
-0.017544 0.046037 0.051039
-0.072144 0.145534 -0.018903
-0.067227 0.135447 0.044970
-0.079327 0.169353 -0.039026
-0.037006 0.121579 0.028508
-0.027486 0.064603 0.038490
-0.037862 0.101418 -0.021555
-0.030513 0.107080 0.039642
-0.074087 0.156873 -0.025917
-0.059266 0.059922 0.021599
-0.078002 0.150056 -0.002879
-0.062057 0.121268 0.043679
-0.038809 0.044643 -0.023423
-0.054028 0.131061 -0.005002
-0.042479 0.095874 0.042324
0.011857 0.088726 0.054158
-0.023254 0.181611 -0.010870
-0.043590 0.050554 -0.010776
-0.086376 0.099163 0.026108
-0.014495 0.119623 0.036143
-0.082362 0.110377 0.032822
-0.063261 0.060154 0.004267
0.003307 0.058323 -0.032121
-0.069095 0.075163 0.037993
-0.068516 0.168032 -0.053993
-0.052576 0.136549 0.028410
0.013270 0.060332 0.050703
0.031401 0.049121 -0.007337
-0.080675 0.155074 0.015012
-0.016393 0.038464 -0.001040
-0.022303 0.038173 0.010763
-0.030341 0.046246 0.048186
-0.028097 0.160790 -0.014078
0.052016 0.059673 -0.003689
-0.041866 0.034002 -0.005803
0.038631 0.106935 0.001162
-0.061186 0.044121 -0.004327
-0.001026 0.034661 0.043494
0.037277 0.100696 0.031257
-0.009946 0.033902 -0.025192
-0.015507 0.175699 -0.019087
-0.035694 0.066632 -0.015331
-0.042342 0.033571 -0.024005
-0.070968 0.136976 -0.007698
0.042578 0.092987 -0.003797
-0.069373 0.065501 0.025205
-0.004494 0.045680 0.047057
0.017365 0.049165 -0.024147
-0.052312 0.036066 0.046443
0.006503 0.121045 0.035909
0.019265 0.070801 -0.028772
-0.033715 0.120592 -0.009512
0.045496 0.044388 0.000424
-0.089434 0.132252 0.004249
-0.082997 0.088352 -0.005606
0.019834 0.040800 0.042439
0.017746 0.035063 0.032586
-0.092367 0.124202 0.041188
0.036519 0.052680 0.031510
0.009904 0.130871 0.017598
-0.019761 0.098438 0.044553
0.028249 0.102359 -0.016409
0.043329 0.066441 -0.000599
-0.086404 0.111678 0.005301
0.018474 0.104403 0.043934
0.044285 0.094548 0.018157
-0.035471 0.126342 0.018617
0.025722 0.067252 0.044164
-0.073533 0.165176 -0.017728
-0.031352 0.158102 0.001921
0.053726 0.062224 0.028395
0.021537 0.086463 -0.025639
0.027031 0.078185 0.046154
0.000834 0.106762 -0.021083
-0.049886 0.149233 0.011909
-0.052887 0.033430 0.021308
-0.034499 0.086026 0.042675
-0.076985 0.069091 0.018728
-0.029343 0.112771 -0.017378
-0.056356 0.044827 0.014861
0.054699 0.047862 0.014196
-0.046599 0.120315 -0.013233
0.011103 0.077977 0.054759
-0.083110 0.077721 0.021513
-0.057787 0.084030 -0.021171
-0.031796 0.166782 -0.005769
-0.010683 0.090847 -0.036465
0.003576 0.039538 0.034703
-0.026352 0.059005 -0.029433
0.008404 0.036084 -0.022986
-0.070647 0.074911 -0.012889
-0.006924 0.038377 0.019144
0.048778 0.052564 0.029943
0.037605 0.061653 -0.010750
-0.006670 0.055527 -0.033041
-0.003495 0.123738 0.034300
-0.080826 0.114785 -0.002826
-0.060390 0.152423 0.000273
-0.008831 0.130134 0.017954
-0.042496 0.073382 0.042545
-0.057588 0.034390 0.033548
-0.063140 0.158352 -0.042598
-0.050673 0.066794 0.036819
-0.055483 0.086194 0.044963
-0.069357 0.156301 0.016052
-0.017226 0.113695 -0.018420
-0.083697 0.079016 0.002521
-0.026330 0.033620 -0.022763
0.033519 0.039864 0.026066
-0.086908 0.084709 0.013477
0.027653 0.050601 0.037989
0.032981 0.112282 -0.004986
-0.070199 0.036864 0.010510
0.026477 0.122884 0.009462
-0.075025 0.152273 0.034744
-0.025996 0.096752 -0.024574
-0.013127 0.120519 -0.011643
0.024334 0.060588 -0.024719
-0.071500 0.108276 0.037441
-0.040323 0.034461 0.037156
-0.019721 0.123533 0.027267
-0.013239 0.183700 -0.027884
-0.094679 0.122825 0.020273
-0.074025 0.149858 -0.032875
-0.077344 0.119067 0.051823
0.057941 0.071645 0.011982
0.016217 0.116863 -0.013936
-0.002726 0.130091 0.001498
-0.055688 0.067760 -0.012341
-0.055705 0.122090 -0.008916
0.024682 0.036038 0.024067
-0.068808 0.150274 -0.042428
0.029775 0.092078 -0.019477
-0.082762 0.091206 0.031246
0.003390 0.116722 -0.017752
-0.023462 0.038510 -0.008063
-0.082132 0.152650 0.005763
-0.072913 0.092851 0.041112
-0.063041 0.149018 -0.019580
-0.021100 0.166843 -0.011390
-0.045123 0.157633 -0.008691
-0.065319 0.152492 0.035121
0.006505 0.105723 0.041911
0.004513 0.056138 0.053347
-0.063899 0.109582 -0.014440
-0.052555 0.044474 -0.008494
-0.042224 0.148296 -0.002460
-0.076860 0.085219 -0.012578
0.034756 0.076897 -0.015723
-0.035377 0.172711 -0.013245
0.046372 0.076445 0.007194
0.018763 0.105558 -0.017787
-0.067957 0.176267 -0.048521
-0.056870 0.141076 -0.003370
0.035581 0.113279 0.015710
-0.035499 0.113848 0.033895
-0.045515 0.050536 0.038549
-0.008749 0.074210 -0.037697
-0.026929 0.037698 0.019280
-0.054634 0.033482 0.011998
-0.009758 0.167025 -0.022376
-0.037640 0.033672 0.002661
-0.066902 0.117219 0.050708
-0.053496 0.107052 0.039833
-0.019420 0.124600 -0.003823
0.037666 0.037438 0.008936
-0.070867 0.102264 -0.013761
-0.047009 0.130577 0.002180
0.005217 0.082446 -0.034029
0.039434 0.083424 0.034232
-0.052692 0.033434 -0.003802
0.046019 0.071491 0.020803
-0.091675 0.147474 0.019144
0.058379 0.062121 0.003183
0.016415 0.127597 0.001462
-0.091417 0.131046 0.029235
-0.070882 0.172457 -0.036647
-0.030510 0.060840 -0.020413
-0.019816 0.034780 0.046513
-0.082518 0.081668 0.029891
-0.061734 0.073727 -0.016701
0.000248 0.072662 -0.035369
-0.071030 0.163810 -0.045969
0.011752 0.035286 0.003813
0.004480 0.038572 -0.011868
-0.044719 0.070998 -0.017101
-0.089646 0.092944 0.016433
-0.046777 0.082660 -0.021013
-0.029993 0.043612 -0.029046
0.022896 0.035890 0.014740
-0.017003 0.097750 -0.025629
-0.090394 0.113745 0.035456
-0.013709 0.061434 -0.036447
0.019967 0.126684 0.019875
-0.062362 0.164360 -0.059580
-0.045597 0.169625 -0.002419
-0.036008 0.048523 -0.015324
0.040743 0.102836 0.021176
-0.023817 0.085411 -0.037641
0.050879 0.046558 0.022316
-0.046733 0.133652 0.011455
-0.049490 0.157875 0.009218
0.016241 0.079314 -0.029447
0.023235 0.096877 0.046070
-0.025055 0.070773 0.045004
-0.034029 0.038454 -0.006437
-0.061969 0.155933 0.021579
0.037315 0.065964 0.036298
-0.002522 0.038424 0.005474
0.022867 0.044446 -0.014776
0.040304 0.039879 0.020144
-0.023344 0.179984 -0.019945
-0.078137 0.103077 -0.008569
-0.039321 0.034242 -0.014731
-0.016200 0.038650 0.031433
0.000625 0.130997 0.019940
-0.034439 0.125663 -0.001620
-0.084650 0.129332 -0.002652
-0.074673 0.145787 -0.009870
-0.078293 0.163856 -0.031950
-0.011500 0.101652 0.044025
-0.063906 0.118033 -0.009453
-0.049207 0.128269 0.030574
-0.029644 0.125848 0.011894
-0.084795 0.140657 0.043026
0.030849 0.116432 0.026792
0.059309 0.062223 0.021166
-0.027097 0.079432 0.048193
-0.063068 0.138136 0.036884
-0.068811 0.092290 -0.016471
-0.018635 0.093365 0.053449
0.009795 0.036046 0.028270
-0.001598 0.039116 -0.025210
-0.028791 0.121291 0.025511
0.017148 0.034947 -0.009792
-0.067468 0.038293 -0.005742
0.019238 0.117984 0.035039
-0.028932 0.088988 -0.031615
0.009294 0.065355 -0.031694
0.040664 0.081590 -0.009785
-0.057509 0.050794 0.004663
-0.063835 0.043164 0.037843
-0.062473 0.093208 0.044811
0.042875 0.100088 0.004173
-0.083473 0.144593 0.003165
-0.007496 0.091199 0.056754
-0.080650 0.110292 0.042205
-0.006587 0.038823 -0.014304
-0.000475 0.073207 0.057943
-0.021649 0.047936 -0.028152
-0.090669 0.139207 0.016179
-0.060082 0.041331 0.022701
-0.062489 0.163088 -0.050589
-0.078146 0.155117 0.024688
-0.048662 0.034550 0.038798
-0.062029 0.135502 -0.007174
-0.003497 0.063376 0.056312
-0.089158 0.142048 0.033168
-0.033795 0.080816 -0.025528
-0.027335 0.172717 -0.009826
-0.058043 0.153536 0.030305
-0.058840 0.092594 -0.020338
0.009590 0.131031 0.008931
-0.009672 0.096871 -0.030636
-0.062536 0.155244 -0.034605
0.026760 0.036582 0.000024
0.019848 0.079533 0.051611
0.012575 0.044598 0.044275
-0.018146 0.166773 -0.019236
0.037727 0.092842 0.035309
-0.018079 0.033798 -0.021304
-0.087069 0.096801 0.002439
-0.051032 0.054419 0.019619
0.021931 0.060551 0.047434
-0.059247 0.046889 0.031672
0.005144 0.040074 0.045751
-0.068294 0.064040 -0.001503
-0.092049 0.125439 0.008266
0.003963 0.034664 0.000956
0.006706 0.034141 0.018486
-0.041838 0.094279 -0.022804
-0.078503 0.128864 0.053273
-0.037115 0.160706 -0.012990
-0.036502 0.101484 0.041363
0.012287 0.124953 0.031398
-0.023858 0.038281 0.028389
-0.054172 0.144673 0.027405
-0.028513 0.055964 0.036416
-0.008492 0.110041 0.042943
-0.058409 0.042117 0.045176
-0.067662 0.043393 0.000690
0.013889 0.094257 -0.025787
0.050313 0.051687 -0.002998
0.029937 0.035036 0.007701
-0.022096 0.062306 0.045165
-0.061774 0.058509 0.013381
-0.087544 0.110450 0.013340
-0.039664 0.034051 0.027077
-0.014482 0.075902 0.056508
-0.056155 0.118392 0.038048
-0.072669 0.161352 -0.009911
0.039387 0.046044 -0.004856
-0.013484 0.053101 0.050499
-0.016280 0.127645 0.021109
-0.062594 0.153749 -0.012584
0.015860 0.094022 0.049426
-0.006508 0.078762 0.057751
-0.091126 0.115738 0.024682
-0.067052 0.166375 -0.023760
-0.051977 0.034099 -0.013437
-0.076964 0.068647 0.010252
0.008601 0.121512 -0.012936
0.011371 0.052382 -0.028792
-0.008917 0.035108 0.041468
-0.057650 0.062947 -0.006121
0.005481 0.114140 0.040503
-0.063131 0.034347 0.025414
-0.043501 0.115257 0.033517
0.032057 0.106099 0.034228
0.026287 0.068977 -0.023439
-0.082487 0.096508 -0.005596
-0.061715 0.155302 -0.025582
-0.069266 0.069294 0.032471
0.013267 0.051975 0.048858
-0.030870 0.105755 -0.021555
0.018302 0.034730 -0.001830
0.006586 0.094568 -0.030124
-0.023530 0.111308 0.039012
0.038397 0.093198 -0.010615
-0.087244 0.132483 0.045702
-0.073629 0.156748 -0.001469
-0.053920 0.061013 0.027426
-0.015751 0.070024 -0.038407
0.021716 0.119158 -0.008410
-0.045186 0.146266 0.004634
-0.077469 0.144183 0.044665
-0.002166 0.099970 -0.023881
-0.028468 0.071858 -0.033543
0.051538 0.046149 0.006217
0.032885 0.055612 -0.012714
-0.026808 0.122539 -0.005622
-0.039604 0.174135 -0.006020
-0.034180 0.033589 -0.022409
0.044589 0.083331 0.024170
-0.017978 0.159470 -0.010394
-0.048512 0.112536 -0.017052
-0.029528 0.038362 0.034329
-0.056886 0.106915 -0.018141
-0.029216 0.178518 -0.014988
0.030217 0.084323 -0.020157
-0.073423 0.071165 -0.006645
-0.000657 0.051138 -0.030827
0.059162 0.055276 0.015175
-0.087275 0.139127 0.007193
0.049877 0.073433 0.013421
-0.020479 0.081458 0.056656
0.013172 0.128382 0.024517
-0.048495 0.090385 0.044531
0.024499 0.106997 0.039049
-0.065794 0.034842 0.034883
-0.088267 0.102346 0.019362
-0.010490 0.060498 0.055081
0.010996 0.069892 0.054534
-0.062340 0.172509 -0.053613
-0.023134 0.038369 -0.017171
-0.022306 0.126998 0.010173
0.012396 0.043408 -0.024550
-0.034504 0.069070 0.041411
-0.050614 0.056095 -0.009173
-0.036270 0.044752 0.042815
-0.039790 0.085561 -0.021704
-0.070898 0.120893 -0.008652
-0.044495 0.120650 0.027643
-0.059498 0.102930 0.041977
0.007107 0.126603 -0.006432
0.002175 0.089496 -0.033884
-0.039664 0.059223 -0.011677
-0.064581 0.128354 0.045324
-0.051025 0.159915 -0.004539
-0.026901 0.155694 -0.007188
-0.033466 0.039622 0.050084
-0.011406 0.038823 -0.007787
0.010693 0.034192 -0.016035
-0.077650 0.163935 -0.023934
-0.062493 0.077541 0.041934
0.037887 0.110163 0.007940
-0.043533 0.162269 0.005662
-0.047497 0.101477 0.041786
-0.070114 0.062580 0.006217
-0.073578 0.170801 -0.047039
0.028137 0.090230 0.044328
-0.064982 0.114139 0.042967
0.031286 0.107094 -0.011440
0.032818 0.096720 -0.014427
-0.028101 0.089041 0.046066
-0.002401 0.128537 0.027551
-0.035738 0.152143 0.000763
-0.057906 0.158452 0.004074
0.041447 0.097198 0.026160
0.000413 0.099411 0.049785
0.026015 0.056390 0.042744
-0.071936 0.129668 -0.008683
-0.014994 0.039546 0.039858
-0.005365 0.038713 0.026395
-0.012801 0.084144 -0.038852
-0.018978 0.039024 0.052996
-0.080303 0.072641 0.004221
-0.052299 0.050426 0.031658
-0.016466 0.068805 0.054426
0.032384 0.046075 0.030703
-0.055886 0.099849 -0.020419
-0.034168 0.072396 -0.020494
-0.073604 0.148628 -0.025599
-0.034855 0.034293 0.020715
0.043240 0.074779 -0.003796
-0.064997 0.041035 0.013689
0.040799 0.069815 0.030793
-0.032140 0.166710 -0.016034
0.002277 0.065518 -0.033927
-0.050498 0.112495 0.035880
0.040564 0.059990 -0.004089
-0.064416 0.154996 0.005865
-0.050510 0.045247 0.042920
0.045632 0.087599 0.013163
-0.000613 0.035660 0.015632
-0.072230 0.134063 0.050096
0.045727 0.084791 0.005196
-0.083336 0.105954 0.027112
-0.025503 0.103002 0.043010
-0.041940 0.035698 0.008997
0.049498 0.067841 0.026516
-0.006355 0.123294 -0.010702
-0.007503 0.130405 0.008352
-0.024781 0.076966 -0.037605
-0.001529 0.127300 -0.005071
-0.048879 0.134867 0.022430
-0.024483 0.044849 0.052682
-0.034478 0.059023 0.039184
-0.049394 0.141680 0.010393
-0.015858 0.107196 -0.021525
-0.014409 0.038338 0.015846
-0.014637 0.046634 -0.029437
-0.077957 0.132491 -0.005925
0.041039 0.099944 -0.002787
-0.045304 0.058783 0.038737
0.030590 0.117314 -0.000462
-0.009915 0.038550 0.002044
-0.093382 0.129671 0.022243
-0.021060 0.174206 -0.014817
0.024931 0.118938 0.030303
-0.070931 0.156768 -0.044906
-0.062892 0.063102 0.026890
-0.066740 0.168684 -0.030810
-0.074932 0.152731 -0.019899
-0.064212 0.145356 0.038849
-0.010538 0.043133 0.049718
0.000511 0.050382 0.052438
-0.075074 0.077317 0.034901
-0.053626 0.125500 0.036505
-0.071123 0.141136 0.046452
-0.053936 0.153495 0.015797
-0.088837 0.094224 0.009439
-0.026364 0.035969 -0.029405
-0.039609 0.039228 -0.027851
-0.088174 0.151960 0.013923
0.031804 0.066152 0.040668
-0.041579 0.128056 0.014913
-0.056052 0.034503 0.040725
-0.081069 0.152209 0.031200
-0.039596 0.118487 -0.013337
0.032732 0.080900 0.042126
-0.015253 0.177145 -0.026520
0.044164 0.097359 0.011161
-0.012537 0.128434 0.001987
-0.021599 0.038253 0.003581
0.003829 0.038757 -0.004675
-0.042135 0.044943 -0.017319
0.031154 0.072342 -0.019780
-0.042874 0.107070 -0.020141
0.011239 0.034903 0.035004
-0.086490 0.103559 0.005404
-0.012607 0.040646 -0.026598
-0.071552 0.081944 0.040087
0.031329 0.118714 0.012707
0.014582 0.100670 -0.022593
-0.037509 0.079016 0.042634
0.035794 0.069929 -0.014840
-0.005579 0.109705 -0.022188
-0.041501 0.088824 0.042593
0.004504 0.088367 0.056244
-0.051084 0.145457 -0.000907
-0.030357 0.053791 -0.017371
-0.049497 0.077690 0.043867
-0.063640 0.033730 0.009922
-0.090367 0.145762 0.027303
0.036980 0.059076 0.033996
-0.060890 0.146655 -0.003442
-0.084269 0.117693 0.048813
-0.065867 0.033494 -0.001088
-0.050065 0.125773 -0.006884
-0.063246 0.070984 0.037551
-0.067246 0.173921 -0.058281
-0.052600 0.146245 0.019404
-0.050638 0.047380 0.017670
-0.067746 0.149084 -0.035504
-0.019848 0.126879 0.003783
0.032733 0.094264 0.040445
-0.075275 0.175704 -0.042592
-0.078242 0.091378 0.036603
0.029434 0.041485 -0.004261
0.007481 0.093725 0.052716
-0.030408 0.049970 0.042504
0.043084 0.049674 0.032233
-0.043886 0.035740 0.044000
0.022334 0.053571 -0.025424
0.017228 0.035307 0.039484
-0.010287 0.034408 -0.018460
-0.034494 0.171246 -0.000779
0.029330 0.049536 -0.013751
0.059962 0.067831 0.017172
-0.032843 0.097218 -0.023193
-0.038578 0.159500 0.002030
-0.066182 0.061511 0.020513
-0.073792 0.165213 -0.039989
-0.090218 0.117255 0.005304
0.028802 0.059406 -0.019805
-0.077024 0.141306 -0.005453
-0.033124 0.126633 0.006218
-0.057536 0.138153 0.032606
-0.036481 0.093183 0.044200
0.038688 0.076704 0.034863
-0.026485 0.034888 0.046744
0.022099 0.047668 0.040486
-0.055535 0.038822 -0.010354
-0.035222 0.034663 0.032786
-0.019277 0.055431 0.048200
-0.020723 0.059773 -0.034042
-0.020504 0.116790 0.036035
0.059119 0.056660 0.008175
-0.010490 0.115533 0.039794
-0.056149 0.034124 0.027079
0.049239 0.043739 0.016463
-0.069091 0.143000 -0.012301
-0.046841 0.098515 -0.021833
-0.077186 0.109877 -0.005596
-0.045122 0.033595 -0.011604
-0.091607 0.128323 0.035245
-0.062529 0.164689 -0.038593
0.022210 0.125239 0.005033
-0.067684 0.160922 -0.055994
-0.092390 0.114734 0.018313
-0.023788 0.093208 0.048729
-0.017824 0.088280 -0.038019
-0.064300 0.179479 -0.060139
0.000488 0.110024 0.042625
-0.024122 0.165279 -0.017023
-0.057438 0.057683 0.002604
-0.004234 0.038225 0.047939
-0.082365 0.081542 -0.003541
-0.077848 0.159718 -0.018923
-0.003500 0.085669 0.057293
0.044499 0.056991 0.032098
-0.086100 0.080568 0.008504
-0.066553 0.160013 -0.012042
-0.052086 0.054571 0.026631
-0.041088 0.128060 0.000342
0.004061 0.034737 0.039084
-0.048492 0.071808 0.040533
0.025289 0.122228 0.024709
-0.044408 0.039486 -0.022300
-0.082901 0.122118 -0.004128
-0.014826 0.181632 -0.021586
-0.092473 0.117499 0.040302
-0.040844 0.152602 -0.007232
-0.089153 0.121635 0.046529
0.020450 0.044377 -0.020765
-0.073236 0.176411 -0.053089
-0.036509 0.108385 0.037638
-0.021187 0.174176 -0.021770
-0.015198 0.171233 -0.023703
-0.046555 0.044720 -0.010781
0.036319 0.106784 -0.004828
-0.010472 0.123683 0.033038
0.002587 0.125467 0.032257
-0.086496 0.112872 0.028075
0.049580 0.065214 -0.001339
-0.021069 0.066782 0.049638
-0.004441 0.091678 -0.035264
0.016140 0.084750 0.051557
0.042595 0.087349 -0.006806
-0.072718 0.080665 -0.014719
0.044814 0.088953 0.021160
-0.077502 0.148428 0.039927
-0.051474 0.135214 -0.000925
-0.086382 0.148632 0.031685
0.040797 0.066153 -0.006772
-0.066687 0.154580 -0.000433
0.058805 0.067709 0.006149
-0.025243 0.163867 -0.006849
-0.077183 0.107237 0.034697
-0.062546 0.061453 -0.002157
0.046365 0.070319 0.003506
-0.088646 0.093594 0.022914
-0.017261 0.128293 0.014913
-0.075866 0.116415 -0.006361
0.038722 0.108400 0.018173
-0.061763 0.079590 -0.018997
-0.002256 0.119004 -0.014149
-0.075207 0.156095 0.018364
0.009328 0.058172 -0.030172
-0.072366 0.100858 0.038913
-0.055958 0.047813 -0.004391
0.010138 0.104418 -0.020246
-0.077020 0.170132 -0.033250
-0.068433 0.033693 0.005400
-0.077024 0.071669 -0.001469
-0.022659 0.185005 -0.016102
-0.055118 0.156069 -0.001769
0.005502 0.074506 0.056606
0.028683 0.072686 0.043225
-0.063315 0.132484 0.040089
-0.026914 0.066094 -0.031493
0.027826 0.115624 -0.006600
-0.076512 0.155610 -0.006896
-0.006130 0.099932 0.048898
-0.069929 0.042182 0.007249
0.026412 0.045098 -0.009684
-0.053977 0.033510 0.004914
-0.082856 0.097982 0.031115
0.023062 0.038971 0.037299
-0.062713 0.161593 -0.024579
-0.063725 0.155028 0.028236
0.019404 0.123725 -0.003354
0.023522 0.072762 0.048069
-0.085660 0.085872 -0.000523
-0.053566 0.132546 0.033063
-0.093776 0.124126 0.014263
0.019492 0.111179 0.038009
0.024810 0.124191 0.015977
0.021268 0.076295 -0.026675
-0.057230 0.069619 0.038276
-0.001622 0.045044 -0.027024
-0.090256 0.135043 0.011213
0.034803 0.113058 0.001100
-0.013097 0.169821 -0.017375
0.008605 0.061703 0.054526
0.012487 0.118181 0.036207
-0.034105 0.162392 -0.002079
0.045769 0.043102 0.021980
0.032017 0.111398 0.030626
-0.011609 0.038434 0.025364
-0.027791 0.038063 0.007938
-0.085737 0.110915 0.038774
-0.005225 0.038421 0.012203
0.012512 0.107097 0.042147
-0.046743 0.076765 -0.018229
-0.016108 0.038364 0.006413
-0.059013 0.128179 -0.007183
0.008173 0.083289 0.055812
-0.032178 0.075004 -0.028529
-0.040335 0.124745 0.022790
0.033694 0.099480 0.036592
0.002680 0.131212 0.004950
-0.049676 0.067879 -0.013596
0.033028 0.116174 0.020490
0.044959 0.088949 0.000172
-0.074896 0.069052 0.024494
0.036403 0.054785 -0.006750
0.023688 0.037311 0.029977
-0.041694 0.065201 -0.014539
-0.052450 0.140085 0.023410
-0.061164 0.046897 0.001678
-0.073858 0.159643 -0.031932
-0.029292 0.117943 -0.012791
-0.006487 0.119657 0.037732
-0.046099 0.132381 0.017597
0.005343 0.052464 -0.029740
-0.052640 0.061828 -0.009665
0.041005 0.039596 0.004314
-0.062808 0.088162 -0.019046
0.045544 0.077487 0.021721
-0.066706 0.146380 -0.023657
-0.057487 0.080520 0.044085
0.024126 0.091478 -0.022848
0.029067 0.120111 0.004714
-0.064493 0.105621 0.039804
-0.030811 0.153953 -0.002483
-0.078840 0.114440 0.048194
-0.011087 0.111309 -0.019904
-0.037623 0.051989 -0.010627
-0.047230 0.164057 -0.006794
0.017545 0.064533 0.049902
-0.081012 0.073438 0.017550
-0.066363 0.141125 0.042739
0.004398 0.040466 -0.024069
-0.068936 0.173831 -0.043096
-0.058188 0.125521 0.040436
-0.032182 0.066622 -0.020442
-0.025490 0.049863 0.046603
-0.013499 0.091175 0.056481
-0.010662 0.051144 -0.032067
-0.056076 0.048631 0.010232
0.018548 0.111232 -0.015859
-0.076294 0.155585 0.010695
-0.029504 0.112518 0.035669
-0.083194 0.132626 0.050147
-0.024037 0.110820 -0.019348
-0.085553 0.153551 0.019230
-0.023671 0.053685 -0.028914
-0.038331 0.037934 0.043723
0.017283 0.065166 -0.028995
-0.029507 0.063547 -0.026426
-0.040498 0.054860 0.039664
-0.035882 0.108535 -0.019921
-0.028499 0.070332 0.039785
0.004409 0.131695 0.014167
-0.008477 0.048912 0.050085
-0.079103 0.073163 0.023575
-0.029663 0.180174 -0.008672
-0.067893 0.090099 0.043242
-0.017297 0.038616 -0.006918
0.009299 0.115842 -0.016820
-0.085723 0.079243 0.015505
-0.065247 0.122825 0.049606
-0.085689 0.092625 -0.001562
-0.020290 0.038103 0.016664
-0.033489 0.047114 -0.024356
0.017891 0.056359 0.048580
-0.072671 0.065105 0.019571
-0.046608 0.166842 0.002891
-0.002687 0.059831 -0.033830
-0.036097 0.127648 0.012475
-0.002083 0.039098 0.032135
-0.063122 0.156103 0.015364
-0.050580 0.050283 -0.008138
-0.034543 0.114978 -0.015669
-0.062814 0.169399 -0.048588
0.046358 0.057563 -0.005564
-0.040496 0.047843 0.040073
-0.065752 0.154274 -0.046213
0.004925 0.111581 -0.020193
-0.067559 0.163657 -0.016750
-0.062792 0.150662 -0.007570
0.042708 0.100107 0.016164
-0.032496 0.117987 0.030979
-0.029779 0.125132 0.017741
-0.046073 0.033675 -0.017410
-0.045489 0.066100 0.039513
-0.018497 0.086996 0.056580
0.032430 0.053504 0.036160
-0.005495 0.096571 0.053682
-0.024816 0.059303 0.040904
0.015461 0.100515 0.047156
-0.014447 0.034808 0.044122
-0.054684 0.043571 0.020692
0.024838 0.107021 -0.015368
-0.089464 0.136534 0.031204
-0.082716 0.108829 0.000296
-0.072362 0.114661 0.051285
-0.059446 0.033484 -0.003390
-0.000258 0.038806 0.000049
-0.022558 0.038355 -0.002183
-0.073601 0.065433 0.013784
0.044262 0.094533 0.002183
-0.041306 0.123313 -0.010402
-0.088590 0.126718 0.002271
-0.033902 0.123839 0.023639
-0.027625 0.160982 -0.001494
-0.030661 0.081698 0.042049
0.013286 0.069571 -0.031356
-0.090533 0.135117 0.021211
-0.001429 0.112626 -0.019359
0.048512 0.061101 0.030692
0.053409 0.055393 0.027877
-0.006106 0.129863 0.023287
-0.075582 0.148590 -0.014867
-0.018823 0.121694 -0.008817
-0.044079 0.033681 -0.000462
-0.071494 0.120397 0.053531
0.055341 0.056302 0.000212
-0.051788 0.085501 -0.021569
-0.066012 0.139954 -0.007800
-0.015764 0.035327 -0.026378
-0.090147 0.129651 0.041579
0.003527 0.101610 0.044675
0.036011 0.106014 0.029376
-0.038589 0.036902 -0.009629
-0.020775 0.072849 -0.038793
-0.064783 0.177875 -0.054614
-0.072807 0.087878 -0.015713
-0.019494 0.049885 0.046612
-0.080506 0.103384 0.031438
-0.066968 0.132599 -0.008480
0.043579 0.067781 0.026162
-0.001698 0.039136 -0.009871
0.002413 0.034728 -0.023050
0.002380 0.097621 -0.027377
-0.056498 0.091856 0.045386
-0.044804 0.088441 -0.022003
-0.044631 0.056321 -0.011439
0.040435 0.038903 0.013766
-0.055150 0.064188 0.032857
