# .PCD v0.7 - Point Cloud Data file format
VERSION 0.7
FIELDS x y z
SIZE 4 4 4
TYPE F F F
COUNT 1 1 1
WIDTH 1641
HEIGHT 1
VIEWPOINT 0 0 0 1 0 0 0
POINTS 1641
DATA ascii
0.040384 0.054748 -0.006416
0.013085 0.034266 -0.013736
-0.066005 0.138467 -0.007768
-0.032720 0.065255 -0.018450
-0.065458 0.040395 0.036726
-0.032162 0.172645 -0.015639
-0.045387 0.145929 0.001566
-0.012496 0.082899 0.057534
-0.089067 0.101028 0.017383
-0.088709 0.112351 0.038740
-0.078332 0.078875 0.032897
-0.065419 0.164170 -0.021718
0.031572 0.117859 0.004238
-0.036008 0.048523 -0.015324
0.040583 0.067090 0.030500
-0.029988 0.038158 0.032627
-0.008749 0.072798 -0.037527
0.060873 0.063739 0.015162
0.040726 0.099995 0.025176
0.034936 0.113582 0.021192
0.000498 0.093870 0.055115
-0.040650 0.117474 -0.014263
0.003398 0.041899 -0.024137
0.039683 0.102719 -0.002757
-0.081817 0.073471 0.008534
-0.048491 0.115278 0.033420
-0.081069 0.152209 0.031200
0.027403 0.041628 -0.004964
-0.013456 0.034766 0.044370
-0.043194 0.036383 0.044045
0.015112 0.043423 0.044414
0.012892 0.127573 0.027292
-0.026221 0.060413 -0.030443
0.025863 0.050563 0.038903
-0.030982 0.125744 0.005538
-0.058010 0.136726 0.033679
-0.053829 0.033817 -0.011710
0.008565 0.119460 -0.014719
-0.008848 0.115581 -0.016454
-0.069872 0.114240 0.050428
-0.077706 0.155692 0.014575
-0.043760 0.036567 -0.025278
-0.003694 0.038682 0.024960
-0.081595 0.123081 0.050413
0.034975 0.068445 -0.015788
-0.024190 0.160559 -0.013637
-0.071530 0.102729 0.038490
-0.063666 0.175908 -0.054211
0.032773 0.036599 0.017928
-0.048498 0.101507 0.041959
0.023419 0.034961 0.021147
0.024914 0.039060 0.032333
-0.043766 0.168716 0.001962
0.018211 0.084868 -0.028048
-0.088718 0.123977 0.002286
-0.057803 0.085447 -0.021198
0.019996 0.120682 0.032620
-0.056723 0.043789 0.022690
0.017155 0.098826 -0.022628
-0.017483 0.107148 0.042009
0.027820 0.108769 0.036887
-0.072229 0.166627 -0.044985
0.039515 0.041587 0.025748
0.013460 0.094917 0.050136
-0.011653 0.129557 0.008268
-0.063943 0.125311 -0.008801
0.017347 0.055206 -0.028278
-0.034510 0.109779 0.037226
-0.047362 0.129578 0.026210
0.052499 0.071814 0.005960
-0.051154 0.144707 0.014368
-0.021709 0.114301 -0.017023
0.045275 0.091791 0.004177
-0.046725 0.075316 -0.017540
-0.072526 0.149972 -0.042469
0.027194 0.047968 -0.016703
-0.030506 0.088933 0.043840
-0.015938 0.124168 -0.005452
-0.066621 0.161046 -0.013512
0.024326 0.059182 -0.024823
-0.061832 0.033432 -0.000213
-0.004226 0.101110 -0.023137
-0.053286 0.052792 0.011570
0.038519 0.109282 0.008158
0.005497 0.054760 0.053263
-0.063598 0.154110 -0.009481
-0.053720 0.049156 0.032659
0.008529 0.034888 0.036265
0.002277 0.065518 -0.033927
0.033690 0.035729 0.009694
-0.039489 0.052017 0.039357
-0.075517 0.071451 -0.004534
-0.081198 0.140383 -0.001822
-0.059322 0.061595 0.025408
0.028710 0.094245 0.043418
-0.039667 0.060685 -0.012067
-0.087789 0.086123 0.017469
0.023937 0.103424 0.041811
-0.036505 0.083293 0.043701
-0.029498 0.058824 0.036877
-0.011801 0.084138 -0.038716
-0.024118 0.120704 -0.009726
-0.071812 0.087913 -0.016109
-0.010773 0.038783 -0.003901
-0.056497 0.100177 0.043131
-0.003784 0.130498 0.021232
-0.076295 0.068931 0.004546
-0.058484 0.088969 0.044676
-0.044251 0.120873 0.027396
-0.025377 0.072217 0.045300
-0.067054 0.153567 -0.049504
-0.046334 0.132474 0.008631
-0.067265 0.068003 0.032256
-0.020324 0.038545 0.030681
-0.054422 0.144671 0.028417
-0.086078 0.110355 0.007352
-0.063190 0.166285 -0.039588
-0.063647 0.113870 0.039443
-0.082604 0.082918 -0.004556
0.024810 0.124191 0.015977
-0.043156 0.162156 -0.010095
-0.057663 0.155278 0.018772
0.035955 0.064663 0.037865
-0.001493 0.112805 0.042117
-0.037250 0.126436 -0.002648
0.004824 0.034975 -0.001017
-0.052567 0.033547 0.012365
0.033501 0.079547 0.041451
-0.005597 0.039151 -0.025708
-0.066613 0.148623 0.039262
0.012488 0.114028 0.038246
-0.051176 0.163872 0.003290
-0.030609 0.039485 -0.030097
-0.018496 0.048617 0.048230
-0.020501 0.126788 0.018134
-0.032711 0.076492 -0.028531
-0.072385 0.155427 -0.035906
-0.069939 0.131128 -0.008636
-0.003321 0.092835 -0.034437
-0.081903 0.123614 -0.004655
0.033825 0.108829 -0.007282
-0.058684 0.046688 -0.002347
0.005489 0.118228 0.037834
-0.085494 0.083212 0.003500
-0.042798 0.088444 -0.021816
-0.069405 0.177621 -0.049052
-0.078083 0.159700 -0.020928
-0.027393 0.038186 0.004285
0.040472 0.075278 0.032151
-0.051689 0.067807 -0.012996
-0.026219 0.162456 -0.004725
-0.056448 0.153922 0.026480
0.020542 0.074122 0.050829
-0.039862 0.102806 -0.020798
-0.087558 0.095491 0.004442
0.042193 0.066261 -0.002834
-0.026393 0.086455 0.050099
-0.003262 0.099438 0.049952
-0.076496 0.154899 -0.005095
-0.051808 0.091301 -0.022055
-0.045497 0.109818 0.038328
-0.002068 0.039143 -0.006209
-0.090824 0.114994 0.023547
-0.083524 0.154076 0.021361
0.047315 0.051866 -0.004956
-0.063713 0.070593 -0.013127
-0.029713 0.050901 -0.019358
-0.025653 0.052096 -0.026997
-0.085208 0.150101 0.006189
-0.014696 0.058519 -0.035431
-0.040769 0.081197 -0.020308
-0.037832 0.094328 -0.023295
0.038397 0.093198 -0.010615
-0.065503 0.044849 0.008437
0.014415 0.034380 -0.006034
-0.065805 0.092410 -0.017991
-0.076484 0.145607 0.043553
-0.042993 0.033765 -0.011333
0.032240 0.084258 -0.019191
-0.052389 0.141597 0.021385
-0.076911 0.100434 -0.010566
-0.088417 0.134980 0.004242
-0.088169 0.124336 0.046883
-0.009276 0.177254 -0.028778
0.042565 0.100090 0.017161
-0.078998 0.165257 -0.031952
-0.009495 0.122405 0.034874
0.004134 0.124074 -0.009643
-0.018025 0.171268 -0.015721
-0.066650 0.135429 0.044007
-0.026162 0.038143 0.054147
-0.038578 0.159500 0.002030
0.005549 0.034124 -0.016962
-0.001177 0.038122 -0.014458
0.015898 0.057676 0.049207
-0.032499 0.033739 0.009074
-0.091463 0.148845 0.019136
-0.074194 0.067889 0.022137
-0.057093 0.053524 0.001625
-0.080127 0.106080 0.030978
0.003227 0.081066 -0.034543
-0.082716 0.108829 0.000296
-0.094058 0.125561 0.024276
-0.037590 0.174214 -0.002983
-0.048557 0.044648 -0.010120
0.040050 0.038780 0.006319
0.052528 0.073071 0.018863
-0.027886 0.105837 -0.022247
0.046184 0.077832 0.006189
-0.016454 0.063082 0.052762
-0.052418 0.131115 0.032986
0.015400 0.044813 -0.024057
-0.062362 0.164360 -0.059580
-0.023595 0.180085 -0.019676
0.048497 0.067808 0.026481
-0.060871 0.101136 -0.018633
-0.077936 0.129573 -0.006564
-0.000500 0.059072 0.054883
-0.066661 0.067226 -0.006480
-0.047873 0.104217 -0.020565
-0.011877 0.105907 -0.022738
0.029367 0.104500 -0.014674
-0.092386 0.125586 0.035261
0.015242 0.073708 -0.030027
0.001817 0.106617 -0.020927
-0.055773 0.033379 -0.004376
-0.045503 0.047805 0.039672
-0.009496 0.054688 0.052570
0.008632 0.128438 -0.002389
0.027229 0.078872 -0.023193
0.017362 0.088714 0.049812
-0.073175 0.162423 -0.037958
-0.038521 0.128019 0.013069
-0.042165 0.149301 -0.004123
-0.023491 0.103006 0.043455
0.019758 0.121448 -0.006908
0.031202 0.114939 -0.003842
-0.028145 0.166722 -0.017073
-0.076892 0.165957 -0.024777
-0.065268 0.179645 -0.060267
-0.052022 0.056108 0.018667
-0.055487 0.040033 0.046971
0.050680 0.067384 0.000484
0.019500 0.048974 0.042015
-0.062723 0.040219 0.024709
-0.084633 0.078176 0.018108
-0.076656 0.077347 -0.008571
0.024309 0.123343 0.002956
-0.040926 0.153594 0.005618
0.035407 0.044613 -0.005240
0.020417 0.092517 -0.023947
-0.003875 0.038423 0.008842
-0.093276 0.122751 0.011282
-0.030842 0.093007 -0.024463
-0.037496 0.067687 0.041682
-0.012241 0.040657 0.050498
0.006504 0.068860 0.055495
-0.061273 0.070885 0.038078
0.036501 0.075614 -0.012786
-0.089469 0.136415 0.011209
-0.050773 0.111366 -0.017973
0.028026 0.121739 0.010036
0.006984 0.131641 0.013682
-0.052876 0.098510 -0.021998
-0.074627 0.149901 -0.029871
0.056004 0.060862 0.026396
-0.056141 0.046071 0.013200
-0.031436 0.171254 -0.005186
-0.036817 0.042530 -0.027996
-0.007501 0.068898 0.055972
-0.062783 0.035148 0.019510
0.060486 0.062317 0.008155
0.007458 0.095201 -0.028798
0.036036 0.100737 0.032976
0.056992 0.050889 0.017185
-0.015751 0.070024 -0.038407
0.053133 0.047671 0.006202
-0.029622 0.035225 0.019146
0.004521 0.084251 0.057146
-0.089790 0.136552 0.034200
-0.045516 0.088913 0.043829
0.014974 0.129329 0.008070
0.001122 0.035712 0.019562
-0.017208 0.172701 -0.023331
-0.069224 0.156340 0.019005
-0.051498 0.084825 0.045390
-0.069345 0.162383 -0.050960
0.054545 0.058989 -0.001818
-0.089817 0.147438 0.011177
-0.018138 0.038277 0.022367
-0.081829 0.147374 0.038455
0.045509 0.055594 0.032330
-0.032494 0.096035 0.044619
-0.053014 0.049055 0.025658
0.011196 0.086475 -0.031092
0.034077 0.055693 -0.010749
-0.045393 0.033661 -0.019115
-0.013497 0.089796 0.056824
0.022771 0.106120 -0.016398
-0.075706 0.112028 0.047285
-0.052652 0.152155 0.015019
-0.018438 0.165372 -0.011068
-0.022535 0.115413 0.036084
-0.051123 0.159083 -0.004598
-0.042495 0.097287 0.042245
0.003350 0.051061 -0.029847
-0.014406 0.112046 -0.018679
-0.020468 0.122105 0.029762
-0.061527 0.034428 0.037884
-0.059755 0.078183 -0.018990
-0.062085 0.166243 -0.051592
-0.057089 0.060232 -0.002574
-0.010679 0.038317 0.020243
-0.016878 0.035104 0.050340
-0.017334 0.128368 0.011977
0.025884 0.060535 0.044360
-0.004776 0.078437 -0.037420
-0.049498 0.076248 0.043343
-0.050202 0.126540 -0.005664
-0.071721 0.080727 -0.015471
0.012061 0.113040 -0.017816
-0.074278 0.161639 -0.011895
0.034236 0.094243 0.039107
-0.086184 0.086859 0.024897
0.031191 0.097762 -0.015509
-0.068689 0.062097 0.005079
-0.001100 0.115152 -0.018034
-0.064963 0.062054 -0.001492
0.046568 0.041911 0.013924
0.018764 0.036357 0.006112
-0.078355 0.090033 0.036759
-0.032173 0.046116 0.045781
-0.074364 0.153685 0.031927
-0.062692 0.155999 0.014072
-0.009647 0.048150 -0.030386
-0.003492 0.047357 0.049062
-0.059164 0.034175 0.026400
0.010913 0.083333 0.054513
0.026028 0.045062 -0.010684
-0.059696 0.140740 -0.005029
-0.036270 0.036561 0.045881
-0.053455 0.062533 0.030481
0.000530 0.074591 0.057827
-0.006205 0.038993 0.031378
-0.009648 0.166616 -0.019763
-0.057218 0.057535 0.008677
-0.085560 0.095177 0.028272
-0.088717 0.117597 0.046210
-0.015499 0.114109 0.039202
-0.022250 0.033628 -0.021967
-0.035989 0.034449 0.034571
-0.055036 0.125520 0.037973
0.000250 0.034760 0.012987
-0.056053 0.151627 -0.001725
-0.048557 0.033537 0.002380
0.032646 0.113685 0.027472
0.058667 0.069077 0.007159
-0.072119 0.063711 0.017368
-0.063605 0.126943 0.044977
0.023272 0.069186 -0.026099
-0.006011 0.034838 0.042307
-0.049018 0.034578 0.036953
-0.072621 0.142849 -0.008920
-0.043575 0.127942 -0.001179
0.027542 0.034962 0.005418
-0.084640 0.107661 0.023346
-0.081864 0.147313 0.001198
-0.018489 0.080109 0.057136
-0.073218 0.172207 -0.049043
0.023603 0.116718 -0.009790
-0.006617 0.097622 -0.029421
-0.088464 0.088772 0.005476
-0.088462 0.145850 0.031030
0.013279 0.034380 0.021424
0.043113 0.097273 0.001185
0.027541 0.044881 0.036026
-0.023043 0.038006 0.017995
-0.079417 0.137236 0.049578
-0.013660 0.038949 0.033485
-0.039075 0.035344 0.009902
-0.073142 0.076299 0.036220
-0.090627 0.137865 0.021193
-0.066191 0.152591 -0.042462
0.034267 0.061320 -0.014809
-0.073854 0.155510 0.007182
-0.026163 0.067420 -0.033516
-0.067775 0.037006 0.013754
-0.070630 0.040151 0.001227
-0.058896 0.033688 0.014505
0.043777 0.080449 0.026234
-0.026519 0.038877 0.038062
-0.073148 0.064432 0.009406
-0.029999 0.178534 -0.014006
-0.050498 0.159322 0.008519
0.037386 0.082128 0.036559
-0.068364 0.143961 0.043402
0.038489 0.051331 0.031984
0.040354 0.105584 0.003176
-0.067370 0.122848 0.051807
-0.034548 0.152531 -0.005605
-0.078061 0.117721 0.051136
-0.041504 0.034051 -0.003939
-0.024598 0.036549 -0.029083
0.028996 0.083514 0.043776
-0.044655 0.061553 0.039426
-0.057494 0.112512 0.036021
-0.083748 0.095211 -0.004554
0.003503 0.048956 0.051381
0.019555 0.127052 0.018298
-0.069383 0.080543 0.040809
-0.060580 0.155686 0.004666
-0.018322 0.184952 -0.023209
-0.066468 0.038370 -0.006485
-0.020729 0.058287 -0.033296
0.042595 0.087349 -0.006806
-0.062923 0.149038 -0.018580
0.048862 0.047436 -0.000621
-0.061453 0.154118 0.030510
-0.014884 0.095989 -0.031739
-0.052752 0.076824 -0.019066
0.039086 0.040778 -0.000614
0.045402 0.087583 0.016165
-0.061482 0.076137 0.041778
0.028043 0.092838 -0.020289
0.022982 0.114019 0.035175
0.009137 0.107291 -0.019926
-0.021834 0.072515 0.051629
-0.042330 0.034088 0.028254
-0.090946 0.114760 0.033332
-0.043021 0.045058 -0.015328
-0.071904 0.103673 -0.012670
0.032697 0.106090 0.033384
-0.008494 0.116931 0.039300
-0.024583 0.063574 0.041961
-0.024507 0.038465 -0.008231
0.041697 0.089922 0.028765
0.058271 0.057958 0.004177
0.041615 0.040414 0.019925
-0.070421 0.155430 0.027334
-0.068433 0.033693 0.005400
-0.032270 0.083503 -0.029549
-0.027434 0.111364 -0.017896
-0.035481 0.038305 -0.002909
-0.081358 0.073464 0.015543
-0.046091 0.156154 -0.007882
-0.017083 0.089686 -0.037322
-0.018658 0.098508 0.044652
-0.041496 0.076229 0.043040
-0.067758 0.169960 -0.032616
-0.087616 0.137864 0.041665
-0.044218 0.170815 -0.003914
-0.010253 0.128943 0.023251
-0.004814 0.128076 -0.003870
0.006411 0.036109 -0.023407
0.024870 0.121138 0.027419
-0.022558 0.038355 -0.002183
-0.076078 0.173825 -0.040050
-0.049619 0.054694 -0.009440
-0.035233 0.037400 -0.014964
0.008455 0.045770 0.046920
-0.026763 0.124714 0.018819
-0.005638 0.130830 0.010478
-0.073303 0.156320 0.000131
-0.061892 0.119466 -0.009428
-0.070188 0.175082 -0.055027
-0.033873 0.156880 -0.011067
-0.036191 0.168183 -0.014056
-0.030136 0.034924 0.047643
0.059353 0.063610 0.021184
0.003507 0.103001 0.043694
-0.061406 0.041953 -0.006748
-0.069915 0.109401 -0.011164
-0.051647 0.048127 0.038874
-0.054068 0.135339 -0.003100
-0.022565 0.184728 -0.012299
-0.016261 0.178620 -0.026013
0.035238 0.044312 0.029693
-0.022125 0.165275 -0.017299
-0.023148 0.091948 0.050937
0.013505 0.108467 0.040767
0.034154 0.054886 0.035140
0.011850 0.035440 0.031039
-0.076095 0.171183 -0.034320
-0.053627 0.063223 -0.009277
-0.022805 0.078451 -0.038546
-0.056885 0.111179 -0.017083
0.038061 0.108343 0.022172
0.036491 0.112064 0.014615
-0.080118 0.084581 0.034455
-0.092408 0.114699 0.015324
0.010240 0.130090 0.022007
-0.066725 0.076568 -0.016644
0.046183 0.080640 0.014176
-0.005118 0.034540 -0.017564
-0.040740 0.073951 -0.018065
-0.067513 0.108346 0.037759
-0.062670 0.135290 0.037491
-0.065884 0.114191 0.045149
0.011365 0.053849 -0.029429
0.029378 0.072189 -0.021785
-0.012510 0.075911 0.056979
-0.075810 0.092086 -0.013915
-0.065082 0.148822 -0.029018
-0.026481 0.050903 0.042916
-0.044913 0.130768 0.015120
-0.012704 0.064273 -0.036767
-0.061970 0.160031 -0.024580
-0.034499 0.119335 0.030175
-0.059651 0.142474 0.034863
-0.070483 0.174975 -0.043674
-0.029545 0.074574 0.040676
-0.069966 0.167828 -0.023400
-0.014037 0.038448 0.001300
-0.023421 0.172725 -0.012965
-0.037623 0.051989 -0.010627
0.006239 0.075428 -0.034363
0.003889 0.130454 0.001537
-0.005496 0.091186 0.056713
-0.065001 0.060017 0.016757
-0.000517 0.038624 0.046832
0.022408 0.080904 0.050064
0.023640 0.036611 0.026972
-0.031646 0.059550 -0.016402
-0.030529 0.035343 -0.019583
-0.076109 0.149998 -0.010881
-0.014480 0.123658 0.031425
-0.075916 0.179384 -0.051606
-0.065011 0.041163 0.030756
0.046701 0.071839 0.019594
0.031054 0.072714 0.041376
-0.024617 0.125897 0.004963
0.001813 0.099477 -0.023352
0.020047 0.035568 0.032603
-0.050941 0.054385 0.031729
-0.051412 0.146842 -0.001939
-0.027380 0.085971 -0.035654
-0.081444 0.153873 0.008908
-0.017656 0.101710 -0.023762
0.045113 0.086157 0.002195
-0.062362 0.042076 0.042051
0.041414 0.104258 0.011162
-0.015116 0.038807 -0.012246
-0.063511 0.152920 -0.034096
-0.053520 0.047223 -0.006807
-0.031499 0.165308 -0.005345
-0.035546 0.114070 -0.016723
0.004512 0.061971 0.056228
0.017745 0.037928 0.042910
-0.061367 0.169388 -0.056590
-0.075939 0.151364 -0.016882
-0.060633 0.122654 0.042162
0.007494 0.095088 0.052015
-0.012768 0.163589 -0.012681
-0.070798 0.067207 0.026944
0.026327 0.054594 -0.020864
-0.062356 0.152158 -0.023580
-0.050118 0.137029 0.002415
-0.024483 0.044849 0.052682
0.024648 0.071332 0.046138
-0.023402 0.157317 -0.008347
-0.024514 0.094532 -0.028309
0.039337 0.098446 -0.006821
-0.031623 0.038478 -0.009671
-0.068519 0.091642 0.042402
-0.029786 0.073336 -0.032555
-0.009702 0.120973 -0.012185
0.015115 0.064503 0.051655
-0.010021 0.038317 0.013133
0.058829 0.069107 0.019159
0.042659 0.059882 -0.004020
0.052608 0.047598 0.021222
-0.045477 0.121400 -0.012376
-0.076084 0.104861 0.035458
-0.001409 0.128360 0.027894
-0.033478 0.063276 0.039552
0.035098 0.114043 0.008378
-0.066500 0.101466 0.041219
-0.027452 0.175685 -0.008219
-0.066844 0.099507 -0.016012
-0.008497 0.105867 0.043742
0.002986 0.131511 0.007931
-0.057687 0.067720 -0.011833
0.037953 0.088823 0.035670
-0.073882 0.117926 -0.007644
-0.083881 0.111187 0.042530
0.021475 0.111750 -0.014422
-0.011605 0.037744 -0.025999
-0.030141 0.063616 -0.023426
-0.043633 0.056346 -0.011525
-0.090900 0.126938 0.042425
0.012008 0.096736 -0.024421
-0.034476 0.056132 0.038302
-0.010783 0.078451 -0.037913
-0.062121 0.045804 0.036679
-0.072490 0.127430 0.052430
-0.018548 0.038232 0.009666
-0.080951 0.088219 -0.007604
0.043495 0.061067 0.030186
0.036388 0.050523 -0.006586
-0.002730 0.068374 -0.034717
-0.017615 0.040764 -0.027966
-0.067902 0.120916 -0.008960
0.017496 0.116768 0.036117
-0.009048 0.099407 0.049388
-0.016036 0.033801 -0.020907
-0.055633 0.118220 -0.012927
-0.020258 0.059625 0.047655
-0.079976 0.076532 0.027530
-0.003086 0.124589 0.033141
0.019135 0.102061 0.045384
-0.062923 0.058915 0.010982
-0.064107 0.063960 0.027655
0.050944 0.055413 0.029582
-0.084131 0.077676 0.004499
-0.055033 0.067461 0.037081
0.020160 0.035722 -0.004678
-0.038503 0.034607 0.040918
0.006784 0.039229 0.032030
0.041753 0.078871 -0.006745
0.056714 0.052249 0.005187
0.018233 0.036946 -0.015679
-0.043500 0.042437 0.043101
-0.012538 0.036567 -0.017148
0.012251 0.076680 0.054628
-0.057495 0.094638 0.044774
-0.017638 0.046551 -0.028678
0.002247 0.131192 0.019105
-0.064615 0.045789 0.002697
0.044058 0.086088 0.025153
0.008316 0.035687 -0.006578
0.028455 0.060796 -0.020849
-0.036487 0.100095 0.042187
-0.093713 0.126863 0.015262
-0.091424 0.144749 0.023153
-0.087152 0.106348 0.012365
-0.085482 0.104867 0.003374
0.038369 0.088421 -0.013773
0.016241 0.079314 -0.029447
-0.021643 0.124246 -0.003492
0.014423 0.120472 -0.011838
-0.089423 0.095635 0.015420
-0.034494 0.033604 -0.024355
0.013452 0.128957 0.001813
-0.076386 0.109432 0.042075
0.001967 0.038507 0.024466
-0.032448 0.069454 -0.022457
0.043642 0.074811 -0.002803
0.035929 0.038671 0.022163
-0.060901 0.106856 -0.017129
0.013789 0.103175 -0.021246
-0.064903 0.110966 -0.013301
-0.088109 0.086128 0.010477
-0.033316 0.126997 0.010545
-0.088213 0.141936 0.011200
-0.080080 0.103192 -0.006600
-0.084535 0.136246 0.000325
0.060152 0.058133 0.015172
-0.089988 0.118599 0.004299
-0.036686 0.065131 -0.014439
-0.050970 0.122064 -0.010998
-0.001310 0.124776 -0.008343
-0.000488 0.080134 0.057590
0.039437 0.068830 -0.010795
-0.079990 0.135372 -0.004072
-0.066237 0.173912 -0.059477
-0.065860 0.154377 -0.003046
-0.049761 0.069112 0.038562
-0.051542 0.038944 -0.011468
-0.035550 0.175589 -0.010979
-0.020414 0.054129 0.046539
0.009398 0.041890 -0.023916
-0.068145 0.144372 -0.016826
-0.048346 0.033897 -0.014368
-0.050064 0.142991 0.002428
-0.039537 0.165252 0.003107
0.007959 0.126912 0.029822
-0.088562 0.129493 0.003239
-0.031039 0.154131 -0.001575
-0.012503 0.067348 0.054053
-0.035497 0.047047 -0.022311
0.023220 0.081876 -0.025620
-0.071767 0.146065 -0.021361
-0.006498 0.081499 0.057324
0.005106 0.038676 0.045760
-0.056189 0.159558 0.005596
-0.029489 0.119549 -0.010463
-0.003651 0.052590 -0.031654
0.051883 0.073455 0.011211
-0.027509 0.181505 -0.008742
0.029915 0.043100 0.030594
-0.044408 0.040908 -0.020305
0.015935 0.127804 0.022682
0.030718 0.111397 0.032304
-0.066246 0.167287 -0.027765
-0.048269 0.133969 0.022670
-0.017926 0.097131 -0.026963
-0.041494 0.112526 0.035681
-0.072230 0.134063 0.050096
0.017428 0.123920 0.028978
0.047624 0.046722 0.026425
0.010951 0.056286 0.052580
-0.083513 0.084359 0.029393
-0.062841 0.144409 -0.007634
-0.004688 0.058424 -0.033790
-0.030781 0.122738 0.023303
-0.032491 0.080327 0.041453
-0.060718 0.033566 0.005296
-0.062828 0.151059 0.036055
0.012291 0.065269 -0.030546
0.024955 0.091580 0.046775
-0.037671 0.125956 0.020768
-0.061500 0.152383 0.000341
-0.031635 0.051114 -0.013365
-0.066450 0.035392 0.034281
-0.089204 0.096947 0.009419
0.036701 0.081275 -0.015753
0.027864 0.036718 0.000104
-0.079094 0.109960 -0.003593
-0.032843 0.125555 0.000440
-0.093857 0.120136 0.024292
-0.025810 0.076633 0.048424
0.021110 0.060549 0.048014
-0.083854 0.110728 0.033992
0.041166 0.095271 0.028027
-0.030867 0.035991 0.025403
-0.053656 0.116868 0.034599
-0.024607 0.157782 -0.002504
0.055400 0.055351 0.025489
-0.034855 0.034293 0.020715
-0.081477 0.128835 0.052479
-0.061726 0.158412 -0.033595
-0.022325 0.038660 -0.013550
-0.035527 0.047850 0.039640
-0.046697 0.066528 -0.014682
-0.088398 0.098324 0.022387
-0.074607 0.156859 -0.023929
-0.012773 0.171309 -0.018659
-0.015458 0.128246 0.019923
0.003352 0.118611 -0.015782
-0.055998 0.128155 -0.006078
-0.064484 0.080458 0.043044
-0.016555 0.128252 0.006465
-0.023859 0.083899 0.054708
-0.063986 0.131146 -0.008374
0.017603 0.052023 0.046358
-0.028426 0.157950 -0.011597
-0.020399 0.177179 -0.015593
0.028950 0.088885 0.043761
0.000177 0.088136 -0.034888
-0.089727 0.135137 0.026210
0.003829 0.038757 -0.004675
-0.006547 0.043000 0.048474
0.031763 0.065347 -0.018741
0.010522 0.099005 0.048324
-0.057003 0.145725 -0.001719
0.044475 0.043873 0.000520
-0.013230 0.174198 -0.026898
-0.049161 0.037568 0.045878
-0.029479 0.044608 0.050399
-0.021197 0.036320 0.053499
-0.087734 0.132461 0.044766
-0.090740 0.135093 0.016211
-0.059421 0.039824 0.019624
0.017370 0.050696 -0.025457
-0.050723 0.072339 -0.015714
-0.020202 0.177138 -0.022781
0.003488 0.114165 0.040895
-0.062808 0.088162 -0.019046
-0.027862 0.098717 -0.023745
-0.054844 0.043635 0.017724
-0.084578 0.148672 0.034115
0.021686 0.037490 0.037261
-0.039081 0.159219 -0.011773
0.029609 0.120150 0.016343
-0.024982 0.117062 -0.013909
-0.067415 0.142782 -0.011227
0.029884 0.035017 0.013299
-0.017732 0.160293 -0.012337
0.020751 0.102320 -0.020332
-0.029379 0.119962 0.028291
-0.048688 0.138613 0.012394
-0.020500 0.111306 0.039834
-0.045290 0.125307 0.023925
-0.029504 0.112518 0.035669
-0.089096 0.111935 0.011359
-0.086753 0.121192 -0.001719
-0.034506 0.113874 0.033927
-0.013437 0.051687 0.050209
-0.009694 0.059872 -0.034569
0.004312 0.061115 -0.031916
-0.065521 0.033537 -0.004666
-0.057517 0.037335 -0.010190
-0.042508 0.056279 0.039802
-0.035721 0.071069 -0.017493
-0.035669 0.117866 -0.012678
-0.018152 0.168270 -0.020239
0.008542 0.104373 0.044167
-0.016807 0.082761 -0.039412
0.022253 0.043067 -0.013715
-0.023936 0.037492 -0.018391
-0.034315 0.079450 -0.024524
0.044285 0.094548 0.018157
-0.040301 0.122206 -0.011247
-0.063485 0.090422 0.045100
-0.064488 0.156696 -0.045603
0.000983 0.037338 0.001634
0.030166 0.051083 -0.013742
-0.022413 0.163867 -0.008032
-0.025528 0.038311 0.029820
-0.026434 0.053594 0.038445
-0.054487 0.045217 0.043831
0.027487 0.099498 0.041652
-0.063913 0.160548 -0.018287
-0.086065 0.099453 0.001404
-0.064746 0.155508 0.008994
-0.017477 0.092439 0.054746
-0.004496 0.063372 0.056159
-0.077709 0.170825 -0.043981
-0.005497 0.057616 0.054162
-0.054767 0.081227 -0.021409
0.055973 0.049415 0.010195
0.013395 0.090075 0.052886
-0.005413 0.130784 0.016306
-0.057500 0.058827 0.021260
-0.027312 0.034700 0.043230
0.043662 0.098735 0.012160
0.014326 0.059482 -0.028781
-0.032193 0.123411 -0.004471
-0.062289 0.150650 -0.013578
0.050298 0.056096 -0.004576
-0.001606 0.043402 -0.025163
-0.054085 0.034195 0.027451
0.031754 0.063277 0.040573
-0.013663 0.051132 -0.031758
-0.061498 0.084733 0.044255
-0.084546 0.119028 0.049092
0.006331 0.055373 -0.030671
0.001652 0.093233 -0.032792
-0.031799 0.038204 0.001558
-0.082419 0.100645 0.030603
-0.074950 0.112554 -0.006623
-0.093034 0.118841 0.036297
-0.057081 0.034465 0.040536
0.004384 0.046525 -0.027585
0.047120 0.072809 0.006978
-0.047099 0.034524 0.032153
-0.056963 0.033577 0.009647
-0.061081 0.034229 0.031199
0.052356 0.064799 0.028141
-0.010915 0.035619 0.049467
0.001487 0.108625 0.042666
-0.012049 0.177175 -0.022849
-0.050570 0.033528 0.007398
-0.069831 0.071946 0.035326
-0.077475 0.141413 0.047069
-0.092740 0.125562 0.029263
-0.073189 0.149857 -0.036868
0.006503 0.122426 0.035017
-0.082178 0.153468 0.026301
-0.069435 0.097259 0.041728
0.026425 0.054947 0.041554
-0.072774 0.108710 0.038069
-0.070386 0.168020 -0.050031
-0.061734 0.073727 -0.016701
-0.008502 0.087044 0.057261
-0.046369 0.113628 -0.016215
-0.048477 0.166987 0.000005
-0.032518 0.070403 0.040493
-0.039619 0.033554 -0.025320
-0.034422 0.156595 0.002759
-0.071969 0.147362 0.041906
-0.066758 0.180263 -0.055320
0.008420 0.035763 -0.012261
-0.028114 0.125637 0.013934
-0.041498 0.086006 0.042598
0.038908 0.063163 0.033303
-0.019137 0.034840 0.044853
-0.081029 0.094006 0.033649
-0.039476 0.171110 0.000601
-0.049432 0.058647 0.034328
-0.070748 0.147309 -0.027834
-0.039834 0.038439 -0.028060
-0.068289 0.164315 -0.017026
0.019265 0.070801 -0.028772
-0.077310 0.159761 -0.015908
-0.051391 0.051680 0.021624
0.045280 0.077756 0.001194
0.029547 0.118060 0.026297
0.050399 0.044608 0.017211
0.003510 0.089738 0.055675
-0.024515 0.119422 0.031223
0.060330 0.067863 0.012143
0.007212 0.083786 -0.033007
-0.019481 0.075764 0.054735
-0.090608 0.131058 0.034232
-0.077210 0.095431 0.036855
-0.054204 0.149302 0.026388
-0.006829 0.089633 -0.036182
-0.000589 0.037658 -0.024950
-0.007035 0.101085 0.044511
-0.006552 0.038981 -0.008824
-0.064266 0.131126 0.042211
0.028835 0.036834 0.022377
0.038573 0.069957 0.034642
0.033566 0.114779 0.000630
-0.086967 0.103645 0.021351
-0.056116 0.131133 0.036427
-0.062492 0.166267 -0.044590
-0.046493 0.165223 0.004593
-0.061519 0.044828 0.011531
-0.026159 0.091804 0.046893
-0.077627 0.069287 0.009577
-0.072780 0.088781 0.041111
-0.007436 0.129906 0.004057
0.010450 0.034314 -0.018114
-0.055363 0.139574 0.030476
-0.039510 0.120770 0.029092
-0.042728 0.129253 0.010041
-0.092552 0.131032 0.024236
-0.077493 0.071730 0.000535
0.018234 0.128007 0.013534
-0.049392 0.144765 0.009383
-0.066518 0.171112 -0.040755
-0.084169 0.143365 0.040913
-0.044287 0.166804 -0.008538
0.027859 0.114683 -0.007590
0.027879 0.120142 0.001443
-0.057499 0.105703 0.040744
-0.061495 0.100138 0.042596
-0.031443 0.033488 -0.029275
-0.039321 0.034242 -0.014731
-0.045884 0.129671 0.002936
0.017396 0.034346 0.000213
0.033503 0.068684 0.039608
-0.027624 0.043659 -0.028939
0.024016 0.065888 0.045206
-0.011234 0.126014 -0.005543
-0.029103 0.162278 -0.014963
0.018960 0.036126 0.019186
0.022611 0.045872 -0.017849
0.011119 0.130773 0.010916
-0.046452 0.094557 0.043636
-0.062413 0.161536 -0.041601
0.008228 0.034418 0.003901
0.005623 0.034628 0.021452
0.024783 0.123596 0.021665
0.037084 0.103994 -0.006832
-0.076358 0.141673 -0.005738
0.043527 0.066404 0.026525
-0.043267 0.149185 0.005669
-0.035303 0.042242 0.046062
-0.085502 0.083296 0.021475
-0.048328 0.119696 0.030003
-0.009045 0.102005 -0.024010
0.013616 0.126814 -0.002678
0.021686 0.087818 -0.025002
-0.027484 0.105666 0.040916
-0.051492 0.154976 0.011100
-0.046429 0.156494 0.008195
-0.023807 0.089963 -0.035665
-0.008874 0.038596 0.002212
-0.044618 0.034541 0.039666
-0.084950 0.136625 0.046121
-0.020758 0.069984 -0.038138
-0.034872 0.104274 -0.020931
-0.007493 0.050355 0.051246
-0.063591 0.172518 -0.050602
-0.078005 0.151454 -0.001885
-0.072361 0.036326 0.003957
-0.068612 0.043205 0.004546
-0.021679 0.049394 -0.028713
-0.046829 0.091298 -0.021721
-0.063370 0.156813 -0.013604
-0.034663 0.060710 -0.012538
0.040417 0.104204 0.020161
0.016379 0.040306 -0.021674
0.048469 0.051147 0.029483
-0.070645 0.070123 -0.006696
-0.073128 0.155455 -0.030908
-0.074748 0.158885 -0.007836
-0.052959 0.033557 -0.000338
-0.028156 0.175620 -0.017521
-0.041497 0.064844 0.041297
0.022287 0.063515 -0.025946
-0.076987 0.071394 0.025541
-0.086923 0.112018 0.023246
-0.038884 0.108506 -0.019659
-0.023866 0.103031 -0.023701
-0.068621 0.149674 -0.039350
0.043651 0.040383 0.009243
0.045677 0.090420 0.009166
-0.001715 0.062736 -0.034540
-0.003340 0.039253 0.035340
-0.090353 0.116014 0.028310
0.019626 0.045759 -0.021723
-0.043755 0.033642 0.001450
-0.018823 0.121694 -0.008817
-0.003494 0.071834 0.058177
0.044477 0.088905 -0.001799
-0.074102 0.156119 0.018748
-0.077513 0.126000 0.052860
0.018544 0.127320 0.005102
-0.068568 0.156629 -0.052997
0.050685 0.044695 0.009222
0.030654 0.052099 0.037091
-0.012515 0.058929 0.053455
-0.062132 0.060257 0.020698
-0.015540 0.044662 0.051049
-0.018924 0.181629 -0.016947
-0.050021 0.052929 0.015556
-0.053919 0.058724 -0.007418
-0.013397 0.121962 -0.009161
-0.013415 0.039353 0.038562
-0.016500 0.085644 0.057081
-0.061497 0.109750 0.037756
-0.077877 0.120773 -0.006633
-0.056722 0.046620 0.027675
-0.055499 0.076185 0.042731
-0.065151 0.036692 0.040216
-0.022113 0.038937 0.035349
-0.062876 0.096767 -0.017905
-0.004495 0.096556 0.053666
-0.014601 0.127548 0.000964
-0.031389 0.033867 0.014601
0.016470 0.097626 0.047455
-0.014030 0.116852 -0.015786
-0.040192 0.166668 -0.011776
0.045359 0.056181 -0.005973
0.010755 0.040417 0.045078
-0.049207 0.128269 0.030574
-0.045498 0.105695 0.040847
0.010128 0.091158 -0.030581
0.023409 0.041864 -0.007669
0.046147 0.077332 0.019090
0.022086 0.122759 -0.002306
-0.034105 0.162392 -0.002079
-0.069946 0.151677 0.036513
-0.013168 0.097475 0.050992
-0.013589 0.169514 -0.023467
-0.039466 0.108422 0.037707
-0.091026 0.125410 0.006269
-0.082836 0.116201 -0.002173
-0.062878 0.161490 -0.051587
-0.060703 0.146825 0.036915
-0.026553 0.080945 0.050430
-0.000041 0.100640 0.046591
-0.087826 0.152428 0.019994
0.006384 0.034625 0.041459
-0.067594 0.162379 -0.055989
0.019484 0.105739 0.042315
0.012173 0.034701 0.040784
-0.005464 0.033797 -0.022595
-0.019299 0.066888 0.052102
-0.062443 0.149095 -0.008576
0.045158 0.067073 0.000845
-0.065219 0.168200 -0.059839
-0.007613 0.043471 -0.026183
0.024451 0.038402 -0.003021
0.022762 0.095979 -0.021624
0.040775 0.045254 0.029988
-0.051499 0.112527 0.035919
-0.080876 0.073332 0.003509
0.018149 0.069985 0.050840
-0.050199 0.140132 0.017399
-0.073582 0.077703 -0.012202
0.010763 0.067170 0.054165
0.034616 0.036932 0.005176
-0.061813 0.175696 -0.058606
0.035410 0.096542 -0.012228
-0.032255 0.072209 -0.026495
0.022324 0.055042 -0.026057
-0.009912 0.111561 -0.020177
-0.089970 0.150950 0.014790
-0.073345 0.159645 -0.033925
0.054748 0.069100 0.002767
-0.064705 0.035219 0.024325
0.037089 0.106835 -0.002831
-0.082410 0.154634 0.015875
0.019341 0.059365 -0.027157
-0.069081 0.034302 0.010082
-0.088080 0.113511 0.043293
0.037955 0.058894 -0.007737
-0.053568 0.121244 0.036552
0.035265 0.059179 0.036808
-0.083003 0.080303 0.000504
0.025281 0.073356 -0.025132
-0.024690 0.056034 -0.029420
-0.026447 0.181471 -0.015030
-0.052918 0.162663 -0.000928
-0.078183 0.161072 -0.025939
-0.066863 0.040937 0.011312
-0.082517 0.108952 0.027350
-0.052787 0.085497 -0.021529
0.052480 0.063643 -0.001737
0.038195 0.102007 0.028991
0.000474 0.097799 0.052290
-0.075310 0.080516 0.036829
-0.009432 0.095325 -0.033029
-0.070969 0.153934 -0.046929
-0.032468 0.175717 -0.002918
-0.034494 0.171246 -0.000779
0.007107 0.126603 -0.006432
-0.066257 0.117183 0.049876
-0.039498 0.071921 0.041929
0.004253 0.071183 -0.034203
-0.052762 0.046194 0.021674
-0.027496 0.100194 0.043487
-0.021597 0.124211 0.023636
0.037697 0.038180 0.017495
-0.035510 0.105608 0.039104
0.017148 0.034947 -0.009792
-0.080002 0.078647 -0.005566
-0.013515 0.181607 -0.023169
-0.031382 0.087702 -0.026557
-0.026783 0.076855 -0.036335
-0.076586 0.155527 -0.018907
0.007296 0.065399 -0.032332
0.056533 0.052395 0.021780
-0.004499 0.108643 0.043502
-0.035572 0.127236 0.003831
-0.010744 0.068501 -0.036579
0.008520 0.073063 0.056014
0.020474 0.085139 0.050012
-0.022995 0.038168 0.007004
-0.022506 0.107170 0.041634
-0.053497 0.089005 0.044997
-0.002872 0.105931 -0.022395
-0.025001 0.067894 0.043644
-0.041767 0.040639 -0.024309
-0.057085 0.048097 0.035664
0.032150 0.106752 -0.011071
-0.052672 0.130856 -0.004313
-0.052501 0.104252 0.040680
0.045860 0.082001 0.004198
-0.089636 0.090245 0.016449
0.036129 0.085855 -0.016904
0.030197 0.088754 -0.020010
-0.056270 0.053470 0.006686
0.036491 0.111851 0.004553
0.042364 0.050585 -0.006680
-0.045720 0.070942 -0.016464
-0.063462 0.033977 0.015084
-0.080556 0.097753 -0.007586
-0.053592 0.114983 -0.015582
-0.073300 0.065441 0.004912
-0.075154 0.099501 0.037512
-0.047152 0.160622 -0.007541
-0.021791 0.095794 0.046657
-0.046696 0.147986 -0.003198
-0.042681 0.063664 -0.013863
-0.038510 0.124563 -0.007724
-0.074439 0.114503 0.050949
-0.049598 0.048927 -0.008798
0.032426 0.041491 -0.003656
-0.068301 0.139737 0.045216
-0.027656 0.121990 -0.007026
-0.089476 0.140666 0.032176
-0.011632 0.126956 0.027154
-0.064515 0.156191 0.019219
0.027985 0.035265 0.018157
-0.065047 0.168333 -0.035932
-0.056635 0.035055 0.045224
-0.053643 0.135335 0.031200
0.038107 0.076737 0.035790
-0.039402 0.046872 -0.017914
0.016693 0.111749 -0.016412
0.013340 0.047531 0.045384
0.008019 0.113693 0.039860
-0.070776 0.162402 -0.045956
-0.046968 0.134154 0.012840
-0.061342 0.118288 0.041013
-0.069915 0.161541 -0.010383
-0.052437 0.048703 0.013670
-0.029547 0.035828 0.052136
0.042856 0.097298 0.022168
0.051200 0.071149 0.022787
0.042639 0.076452 0.028174
-0.004514 0.129600 0.000561
-0.014246 0.168321 -0.015539
-0.026575 0.047686 -0.025878
-0.058497 0.042632 0.044737
-0.069483 0.118967 0.052938
0.001048 0.034636 -0.016433
-0.052333 0.033469 -0.007419
-0.039971 0.112687 -0.017247
-0.030615 0.055224 -0.017380
-0.055895 0.101262 -0.019928
-0.045489 0.066100 0.039513
-0.069903 0.158151 -0.048924
-0.062859 0.067984 0.034956
-0.076397 0.074898 0.031417
-0.050172 0.132485 0.029178
-0.022497 0.049885 0.046496
-0.070958 0.135514 -0.008049
-0.066370 0.157999 -0.009068
-0.051492 0.080491 0.044059
-0.028487 0.060633 -0.026411
-0.038857 0.098573 -0.022083
-0.021685 0.168305 -0.012238
-0.045760 0.079722 -0.019626
-0.030502 0.108423 0.038829
-0.005389 0.122125 -0.011456
-0.067816 0.086606 -0.017777
-0.016492 0.103019 0.043564
-0.037509 0.079016 0.042634
0.023426 0.099487 0.044582
0.032219 0.117688 0.008752
-0.073931 0.128192 -0.008446
-0.056300 0.050629 -0.002373
-0.040494 0.047834 -0.012615
-0.053100 0.154605 -0.003386
0.041460 0.098576 -0.002806
-0.056837 0.089813 -0.021762
-0.011506 0.071660 0.055867
0.007477 0.131195 0.018139
-0.093366 0.118725 0.013302
-0.043501 0.117967 0.030956
0.042025 0.071080 0.028990
0.005150 0.033796 0.011215
-0.027499 0.063148 0.038001
-0.086532 0.091034 0.026535
0.033059 0.116487 0.017644
0.008407 0.123136 -0.010665
0.019986 0.034866 0.024163
-0.062107 0.163118 -0.036593
-0.076985 0.069091 0.018728
-0.024107 0.108647 -0.021064
0.039131 0.078659 -0.010768
0.003240 0.128177 0.028135
0.028544 0.045964 -0.007084
-0.085805 0.095356 -0.000573
0.001227 0.121444 0.036228
-0.012489 0.118271 0.037774
-0.064916 0.115218 -0.010913
0.010914 0.034258 -0.002871
-0.074272 0.166608 -0.041000
-0.068937 0.126774 -0.008927
-0.005607 0.038927 -0.002996
0.044624 0.095967 0.006171
0.008484 0.051826 0.051687
-0.032138 0.043540 -0.028986
-0.045748 0.130844 0.020710
-0.060782 0.082481 -0.019648
-0.028169 0.171188 -0.018077
0.012287 0.124953 0.031398
-0.071123 0.111741 0.046757
-0.038643 0.056302 -0.011133
-0.030557 0.084597 0.042796
-0.028370 0.053574 -0.023394
-0.070813 0.092256 -0.016097
0.043523 0.043367 0.024966
-0.020495 0.119495 0.033477
0.033636 0.072557 -0.016832
0.010494 0.118230 0.036879
0.023519 0.107033 0.039243
0.011277 0.075212 -0.031370
-0.003187 0.035013 0.046321
-0.034827 0.090092 -0.024207
-0.078786 0.074455 -0.004556
-0.069645 0.155522 0.005775
-0.082018 0.151309 0.003275
0.015206 0.087808 -0.029466
0.017600 0.124344 -0.004011
-0.000204 0.130048 0.023977
-0.064736 0.157148 -0.050707
0.019496 0.092026 0.047783
-0.000766 0.081187 -0.036463
-0.081937 0.128034 -0.004969
-0.047800 0.086977 -0.021876
-0.012403 0.038860 -0.008019
-0.009648 0.171546 -0.027075
0.034749 0.098170 0.036348
-0.016669 0.038571 -0.003040
-0.001239 0.131315 0.009229
0.023462 0.034356 0.007020
0.015178 0.084722 0.051916
-0.086564 0.081992 0.016486
-0.088824 0.114444 0.005248
0.023511 0.118015 0.032413
-0.073929 0.068650 -0.000516
-0.077118 0.165222 -0.035974
-0.056471 0.084776 0.044651
-0.086609 0.126656 -0.001715
0.042138 0.101461 0.002172
-0.022862 0.069560 0.048520
-0.042833 0.092828 -0.022790
-0.075858 0.096390 -0.012962
-0.020792 0.117992 -0.012906
-0.078244 0.151233 0.035190
-0.064798 0.124215 0.048500
-0.077893 0.125180 -0.006897
0.042717 0.070528 -0.003788
-0.021924 0.161037 -0.003769
-0.081452 0.133020 0.051112
-0.085029 0.111596 0.003261
-0.004501 0.116806 -0.015781
-0.033014 0.035695 0.030589
0.023169 0.052035 0.042086
-0.078663 0.155487 0.020095
-0.091258 0.116106 0.041708
-0.073271 0.156195 0.013210
-0.086154 0.149931 0.030017
-0.016985 0.038485 0.027823
0.039371 0.104176 0.025187
0.014280 0.069554 -0.031089
-0.073668 0.073094 -0.008324
0.032322 0.116577 0.023064
-0.051848 0.147799 0.017411
-0.076619 0.168746 -0.029372
-0.020775 0.074280 -0.039026
-0.044494 0.051969 0.038747
-0.005496 0.114185 0.040940
0.040287 0.063301 -0.005765
0.028200 0.082909 -0.021804
0.006140 0.097673 -0.025436
0.029061 0.052383 -0.017770
-0.046453 0.146291 0.006432
-0.034503 0.087464 0.042861
-0.041496 0.046493 0.040815
0.045028 0.087556 0.021155
0.019120 0.042209 0.043181
-0.092633 0.130966 0.014233
-0.032154 0.168198 -0.016171
-0.082755 0.076290 0.012523
-0.090667 0.113308 0.019524
-0.012762 0.074265 -0.038416
-0.027895 0.124828 0.002294
-0.004755 0.074124 -0.036385
-0.043491 0.101526 0.042023
-0.082296 0.077332 0.022849
-0.040910 0.173193 -0.005611
0.041711 0.091515 -0.007804
-0.000532 0.111266 -0.019917
-0.061018 0.136970 -0.006763
-0.023966 0.033528 -0.025967
-0.050495 0.097407 0.044006
-0.007799 0.082677 -0.037822
-0.075807 0.087733 -0.013910
0.022263 0.035973 0.016356
-0.077279 0.154395 0.027902
-0.072048 0.154003 -0.040902
-0.045493 0.074751 0.042165
-0.079489 0.111206 0.045300
-0.021352 0.127058 0.007612
-0.060205 0.044163 0.026690
-0.081582 0.080302 0.030391
0.027905 0.039520 0.028864
0.013366 0.116504 -0.015546
-0.063685 0.163906 -0.026836
-0.081518 0.106000 -0.003617
-0.047261 0.125357 0.028009
0.041825 0.083082 -0.007794
0.030005 0.104778 0.036524
-0.012996 0.088389 -0.037978
0.024703 0.046334 0.038968
-0.048477 0.135525 0.006417
-0.037487 0.095933 0.043211
-0.066352 0.155012 0.028768
-0.060912 0.111106 -0.015483
-0.042067 0.033610 0.005441
-0.030497 0.054582 0.036605
-0.019536 0.046121 0.051868
-0.067635 0.070485 -0.010353
-0.067172 0.174543 -0.046799
-0.044577 0.046203 -0.010821
-0.071833 0.156164 0.022455
-0.077566 0.155252 0.010250
-0.018603 0.111108 -0.019691
-0.029096 0.041001 0.052755
0.026308 0.082237 0.046913
-0.088953 0.100999 0.012400
-0.001517 0.042851 0.046801
-0.072512 0.144203 0.044796
-0.023714 0.062529 -0.033248
-0.061606 0.160004 -0.029588
-0.056830 0.143897 0.031927
-0.015806 0.093190 -0.034889
-0.086685 0.144660 0.008187
-0.013481 0.108609 0.042661
-0.059994 0.126727 -0.007819
-0.002796 0.098843 -0.026682
-0.090787 0.146080 0.015149
-0.047661 0.124307 -0.009396
-0.055766 0.056137 -0.002414
-0.070298 0.084676 0.041595
-0.028435 0.084912 0.046528
-0.050883 0.106998 -0.019163
0.028064 0.121158 0.005774
-0.084365 0.087116 -0.003541
0.013227 0.082205 -0.030473
-0.057302 0.152908 0.030569
-0.064937 0.060908 0.003274
-0.039347 0.039285 0.042122
-0.041085 0.123071 0.025509
-0.036948 0.033676 0.006420
-0.094690 0.124172 0.020267
-0.043855 0.101385 -0.021453
-0.028836 0.125617 0.009250
-0.058126 0.049462 0.002655
0.041165 0.067592 -0.006771
0.044164 0.093119 0.000177
-0.074958 0.132548 -0.007343
-0.040043 0.149481 0.002420
-0.059589 0.155231 0.023885
0.014731 0.034734 -0.017658
-0.016044 0.174209 -0.018116
-0.037992 0.128312 0.008833
0.000499 0.063406 0.056730
-0.080126 0.144525 -0.001835
-0.025876 0.057819 0.039174
0.016051 0.075406 0.053134
-0.011819 0.129824 0.012532
0.058114 0.052363 0.013182
-0.043781 0.084081 -0.021219
-0.000484 0.038989 -0.002020
-0.046010 0.127427 -0.004647
-0.000108 0.129910 0.000142
-0.010488 0.125079 0.030916
-0.050433 0.050571 0.035595
-0.069532 0.036669 -0.004054
-0.041902 0.157999 0.004241
-0.042508 0.093031 0.042490
-0.031393 0.112895 -0.017493
-0.004664 0.129429 0.025261
-0.066786 0.156181 0.015515
-0.069203 0.135485 0.047417
0.013361 0.049425 -0.027192
-0.002804 0.038480 0.019895
-0.049886 0.149233 0.011909
-0.051868 0.102767 -0.020788
-0.033428 0.124984 0.020844
0.007395 0.116252 -0.017256
-0.014738 0.108350 -0.020759
0.011433 0.034701 0.026194
-0.036373 0.176071 -0.006836
-0.001502 0.089761 0.056411
0.035443 0.111045 0.025662
-0.043872 0.105649 -0.020524
-0.087449 0.105009 0.017354
0.005006 0.039097 0.028173
0.024725 0.040563 0.036302
0.027177 0.112761 0.034214
-0.000693 0.036794 0.005499
0.003874 0.036768 -0.014087
-0.053785 0.034443 0.037794
0.030596 0.110839 -0.009462
-0.004456 0.112864 -0.019583
-0.092816 0.124239 0.039264
0.034744 0.083540 0.039772
-0.036761 0.079809 -0.020426
-0.054713 0.153591 0.021308
-0.089150 0.139122 0.037510
0.016705 0.094556 -0.024118
-0.091152 0.122908 0.044232
-0.063690 0.064322 -0.005642
-0.027401 0.064743 -0.030472
-0.049507 0.107045 0.039266
0.050509 0.046118 0.003262
-0.026882 0.033888 -0.021248
-0.013279 0.101966 -0.023964
0.046431 0.079258 0.010182
-0.028871 0.171229 -0.008552
0.013144 0.034668 0.035607
0.023811 0.075491 0.048521
-0.047874 0.034649 0.042359
0.024295 0.124607 0.011498
0.001502 0.053401 0.053508
0.054156 0.047755 0.017206
-0.071689 0.171513 -0.032650
-0.021521 0.038257 0.025297
0.015323 0.036240 0.003663
-0.085140 0.125756 0.049465
0.057216 0.064847 0.024658
0.030290 0.078207 0.043845
-0.086150 0.081896 0.007488
-0.007857 0.038496 0.024272
-0.021980 0.038135 0.012675
-0.038795 0.034334 0.030549
-0.065201 0.033442 0.002697
-0.057229 0.155416 0.014578
-0.057411 0.033488 -0.008462
-0.058501 0.073239 0.041071
0.045313 0.069824 0.023466
0.018967 0.119003 -0.010249
-0.001869 0.038896 0.028753
0.015876 0.121559 0.032766
-0.033836 0.095789 -0.023431
0.003190 0.085256 -0.034114
0.031409 0.069544 -0.018778
-0.052454 0.033571 0.023045
-0.091492 0.121350 0.007274
-0.025805 0.081163 -0.037379
0.037258 0.065826 -0.012778
-0.015259 0.098451 0.047130
-0.071835 0.180364 -0.051356
-0.003234 0.096065 -0.031748
0.006494 0.059015 0.053992
0.043607 0.041137 0.004267
-0.083782 0.091132 -0.005566
-0.033489 0.091814 0.044517
0.000499 0.116947 0.039907
-0.059106 0.043569 0.014808
-0.038805 0.088548 -0.023113
-0.062384 0.163016 -0.055604
-0.005347 0.037946 -0.015128
-0.050904 0.119772 0.033348
-0.051387 0.058442 0.030626
-0.015068 0.038410 0.006583
-0.076161 0.175035 -0.049996
-0.045690 0.117990 -0.014801
-0.049833 0.095632 -0.022128
-0.014800 0.038214 0.019496
0.048455 0.070234 0.003596
-0.039054 0.127857 0.001089
0.003347 0.034203 0.015932
-0.052373 0.126911 0.034778
-0.041503 0.080395 0.042616
-0.013542 0.093873 0.054746
0.046493 0.063810 0.029173
-0.090462 0.133649 0.008227
-0.090367 0.145762 0.027303
-0.088453 0.088883 0.021434
-0.052263 0.034345 0.031218
0.056356 0.072345 0.017332
-0.068962 0.177928 -0.058005
-0.043754 0.152254 -0.006623
-0.077680 0.121779 0.052073
-0.088332 0.128385 0.045483
-0.076513 0.164562 -0.020854
-0.054850 0.094162 -0.021834
0.040411 0.087377 0.032199
-0.027749 0.076462 0.044728
-0.066979 0.134061 -0.008350
-0.015815 0.162561 -0.008965
0.055656 0.072590 0.009645
-0.010869 0.165486 -0.015878
-0.010368 0.038806 0.030689
-0.047886 0.033513 -0.010238
-0.071967 0.162417 -0.041952
-0.016254 0.183109 -0.020089
-0.062659 0.067621 -0.010397
0.016493 0.112605 0.038248
-0.014578 0.034825 -0.025972
0.008417 0.129272 0.025662
-0.022807 0.184465 -0.017067
-0.057278 0.057684 0.001605
-0.087520 0.139142 0.008194
-0.048851 0.099945 -0.021893
-0.060091 0.115373 0.037562
-0.011510 0.129073 0.003989
0.035466 0.076805 0.039002
-0.023488 0.125296 0.001007
0.009236 0.129984 0.001670
0.039158 0.108387 0.012165
-0.057757 0.033452 0.000596
-0.091471 0.128331 0.038242
0.032450 0.091625 0.041790
0.025198 0.123641 0.007562
-0.012707 0.179586 -0.028923
0.034467 0.111064 -0.003666
0.041490 0.054183 0.032240
-0.035474 0.051927 0.038323
-0.052177 0.051800 0.028645
0.004348 0.121547 -0.012918
0.003506 0.071674 0.055990
-0.009629 0.168316 -0.023669
-0.021608 0.039391 -0.028712
-0.049950 0.072488 0.040952
-0.078886 0.081283 -0.008558
-0.082882 0.143196 0.002164
-0.029493 0.093199 0.044345
-0.073840 0.154086 -0.026902
0.044950 0.041538 0.017711
-0.031899 0.079231 -0.031535
-0.065480 0.152163 -0.038330
0.000386 0.039224 -0.009536
-0.073184 0.178324 -0.047534
0.023431 0.119360 -0.006621
0.028034 0.034682 0.009507
0.039036 0.098007 0.030266
0.026772 0.107644 -0.014041
-0.057500 0.063019 0.029852
-0.036747 0.127095 0.016674
0.003107 0.034855 0.038781
0.007510 0.064693 0.055493
0.018238 0.089352 -0.026642
-0.060851 0.033396 -0.005416
0.056008 0.054955 0.002171
-0.009452 0.034677 0.045302
0.015494 0.105779 0.043314
-0.071120 0.163576 -0.013748
0.039987 0.079358 0.033241
-0.022744 0.066990 -0.036064
-0.072024 0.158203 -0.038915
0.035763 0.036479 0.013162
-0.069985 0.139935 -0.007721
0.017205 0.061784 0.049393
0.003514 0.066156 0.056277
0.028518 0.096805 -0.018472
-0.086140 0.085909 0.000476
-0.055677 0.049972 0.009791
0.030646 0.096895 0.040958
-0.088411 0.092832 0.007443
-0.020609 0.162049 -0.014962
-0.016152 0.039110 0.051811
0.025225 0.095572 0.045422
0.045739 0.087604 0.006183
-0.053630 0.144677 0.024397
-0.012490 0.104431 0.043439
0.037205 0.038583 0.002289
0.013787 0.037763 0.044336
-0.013636 0.046665 -0.029543
-0.005483 0.122374 0.035692
0.050525 0.073557 0.015150
-0.027056 0.070611 0.041377
-0.023814 0.087930 0.053130
-0.022561 0.060850 0.044244
-0.068989 0.156345 -0.001302
0.060649 0.059552 0.011160
-0.093309 0.117399 0.021307
0.060090 0.060895 0.018182
-0.028949 0.048710 0.045320
0.003516 0.080030 0.056385
-0.068465 0.061721 0.018080
0.011144 0.100252 -0.022540
-0.086324 0.106283 0.007364
-0.090703 0.148891 0.023142
0.025505 0.103245 -0.017334
-0.064212 0.145356 0.038849
-0.053389 0.064921 0.034352
-0.054472 0.060781 0.026950
0.007356 0.050989 -0.029130
-0.009498 0.078776 0.058009
-0.084348 0.145997 0.005136
-0.013382 0.038381 0.010578
0.002685 0.035256 0.045525
-0.065494 0.060463 0.007276
0.007218 0.131495 0.009485
0.035590 0.041191 0.027117
-0.083036 0.104646 0.028271
0.025068 0.091252 -0.022602
