# .PCD v0.7 - Point Cloud Data file format
VERSION 0.7
FIELDS x y z
SIZE 4 4 4
TYPE F F F
COUNT 1 1 1
WIDTH 1640
HEIGHT 1
VIEWPOINT 0 0 0 1 0 0 0
POINTS 1640
DATA ascii
-0.069513 0.179740 -0.051989
-0.071792 0.153989 -0.042899
0.048167 0.073168 0.011240
0.053755 0.068673 0.025186
-0.051027 0.136724 0.024552
0.005144 0.040074 0.045751
0.017867 0.103889 -0.020013
-0.003776 0.078412 -0.037036
0.027419 0.083478 -0.022460
-0.010430 0.175693 -0.023858
0.008492 0.108496 0.040657
0.032398 0.039618 0.026050
-0.023491 0.107132 0.041450
-0.076519 0.119025 0.052424
-0.087264 0.139206 0.041295
-0.072621 0.142849 -0.008920
-0.073806 0.149865 -0.033875
-0.079721 0.075793 0.026457
-0.021518 0.115416 0.036565
-0.053168 0.050303 -0.006388
0.052201 0.047668 0.003246
0.036501 0.075614 -0.012786
-0.052612 0.143167 0.020408
-0.068989 0.156345 -0.001302
-0.016752 0.033660 -0.024675
-0.016509 0.044673 0.051334
-0.073015 0.155450 -0.031908
-0.069106 0.161031 -0.010101
-0.043818 0.092803 -0.022484
-0.090146 0.140633 0.023170
-0.067922 0.123838 -0.008904
-0.063173 0.059646 0.017480
-0.079667 0.088639 0.035290
0.029581 0.073625 -0.021733
-0.073626 0.148585 -0.023858
-0.072842 0.064252 0.016748
0.003073 0.124054 -0.009614
0.028855 0.119043 0.000370
-0.051830 0.034478 0.032946
0.006414 0.037570 -0.023845
-0.015879 0.038593 -0.015937
0.011809 0.084686 0.054070
-0.003488 0.054851 0.054221
-0.078505 0.111148 0.045575
0.032285 0.110983 -0.007605
-0.027280 0.181917 -0.012106
0.051627 0.073624 0.015567
-0.015500 0.112736 0.040088
-0.034877 0.105695 -0.020446
0.029352 0.065969 0.042381
0.015618 0.034888 0.032305
-0.038643 0.056302 -0.011133
-0.050500 0.109789 0.037942
-0.067325 0.149334 0.039009
-0.054835 0.124111 0.038271
0.021005 0.061877 0.047855
-0.057752 0.050802 0.002650
-0.064652 0.064255 -0.005033
-0.075894 0.107753 -0.008316
0.019986 0.034866 0.024163
-0.070040 0.077854 0.039074
-0.052694 0.033421 -0.009283
-0.030522 0.047445 0.045491
0.008499 0.074476 0.056192
0.045527 0.079177 0.002196
-0.012610 0.038469 0.025130
-0.023020 0.038088 0.012503
-0.003109 0.039099 -0.006378
-0.057200 0.068453 0.037501
0.012238 0.064437 0.052786
-0.018839 0.038346 0.002241
-0.044261 0.122001 0.025892
-0.024512 0.053638 0.040913
-0.074241 0.113562 0.049963
0.001494 0.039445 0.034359
0.001109 0.034043 -0.019645
-0.067054 0.071446 0.036340
0.022860 0.125444 0.016672
-0.073199 0.145774 -0.014854
-0.062393 0.155248 -0.033601
-0.088119 0.151555 0.023092
-0.062023 0.159983 -0.037603
-0.064512 0.172574 -0.048564
-0.026685 0.034986 0.050036
-0.044990 0.166930 -0.007854
-0.031650 0.033987 0.018043
-0.083982 0.115583 0.047875
-0.058863 0.034415 0.036732
-0.053936 0.054154 0.010764
-0.076073 0.067549 0.007555
-0.025355 0.121816 0.026751
-0.037451 0.122567 -0.009614
0.036460 0.111481 0.020325
-0.064089 0.165507 -0.029848
0.004765 0.037813 -0.012995
0.019183 0.097426 -0.022726
-0.030620 0.111350 -0.017885
-0.028165 0.172670 -0.018055
0.004938 0.100395 -0.022310
-0.046697 0.066528 -0.014682
-0.053977 0.033510 0.004914
-0.033143 0.157873 -0.011806
-0.045536 0.120317 -0.013244
-0.033477 0.152548 -0.001595
-0.092687 0.118696 0.010306
0.025787 0.096721 -0.020367
0.013437 0.121611 -0.011051
0.042345 0.069093 -0.003789
-0.035824 0.090070 -0.024065
-0.080633 0.120347 0.049427
-0.062015 0.164635 -0.055585
-0.072972 0.170894 -0.030234
0.052276 0.057429 -0.003505
0.019337 0.046094 -0.021939
-0.058573 0.061367 -0.003342
0.046217 0.072979 0.019426
-0.035755 0.078325 -0.019533
0.051859 0.046143 0.019211
-0.025821 0.069274 0.043004
-0.017718 0.125534 0.025003
-0.070267 0.176516 -0.055988
-0.046166 0.168264 0.000999
-0.024783 0.166781 -0.009707
-0.062901 0.038435 0.017326
0.028481 0.120403 0.023044
-0.037473 0.034644 0.041107
0.026264 0.047935 -0.017662
-0.038422 0.125448 0.021986
-0.045902 0.054633 0.038039
0.044555 0.084695 0.000180
0.032885 0.055612 -0.012714
-0.041423 0.150668 0.004839
-0.078898 0.123682 -0.006141
0.017207 0.068625 0.051216
-0.020337 0.061013 0.047673
0.046493 0.063810 0.029173
-0.026812 0.082528 -0.036873
-0.047493 0.080482 0.043756
0.042083 0.040961 0.002278
-0.031639 0.041000 0.051064
-0.048958 0.137072 0.006404
0.031838 0.082231 0.042593
-0.090486 0.114242 0.033262
-0.055115 0.034160 0.027267
-0.042732 0.073959 -0.018322
-0.030501 0.116618 0.032244
0.001398 0.041930 -0.024498
-0.044870 0.104232 -0.020919
-0.056363 0.136730 0.032548
-0.071497 0.156283 0.015292
-0.033676 0.062222 -0.013553
-0.062911 0.115341 -0.011798
0.016916 0.057710 0.048923
0.052927 0.049593 0.023584
0.040454 0.068920 -0.008793
0.056689 0.063545 0.025636
-0.077280 0.155549 -0.016903
0.037254 0.037919 0.004668
-0.042502 0.098694 0.042191
-0.087519 0.112000 0.041063
-0.052520 0.049012 0.037972
-0.033862 0.168258 -0.003495
-0.036821 0.165310 -0.000729
-0.089194 0.088874 0.016456
0.011416 0.040379 -0.023182
0.012948 0.040542 0.044757
-0.048034 0.068533 0.039429
0.017087 0.039703 -0.020700
-0.042415 0.034488 0.031416
0.011239 0.034903 0.035004
-0.042945 0.034563 0.038262
-0.038606 0.039292 -0.028480
0.023260 0.079053 -0.025667
-0.080980 0.104706 0.030458
-0.060833 0.171510 -0.061090
-0.066422 0.035268 0.015055
-0.065974 0.131145 -0.008722
-0.041323 0.046240 -0.016312
0.037341 0.088846 0.036527
-0.051055 0.150177 -0.003516
-0.091681 0.147477 0.020141
-0.076422 0.152995 0.032728
-0.013414 0.058187 0.052191
-0.053794 0.086942 -0.021696
-0.058910 0.111154 -0.016251
-0.070635 0.073394 -0.011490
0.022213 0.103397 0.042817
-0.076365 0.155962 0.017962
-0.013694 0.165443 -0.012940
-0.068505 0.109678 0.037959
-0.004499 0.115591 0.040472
0.038489 0.048451 0.031996
-0.090029 0.114549 0.024098
-0.034246 0.070872 -0.019545
-0.001498 0.111423 0.042411
-0.021095 0.125310 -0.000543
-0.071706 0.159603 -0.040933
-0.062787 0.033503 0.004930
-0.058562 0.124728 -0.007742
-0.004843 0.038469 0.019486
-0.052036 0.149340 0.017399
-0.021685 0.180158 -0.013879
-0.024745 0.069806 -0.036053
-0.064314 0.044528 -0.000908
0.012778 0.105278 -0.019527
-0.017781 0.077087 -0.038803
0.003507 0.103001 0.043694
0.042722 0.101476 0.008165
-0.025480 0.043493 0.053160
-0.077240 0.084660 0.037208
0.006094 0.127443 0.029146
0.021331 0.126248 0.008969
0.007238 0.072578 -0.033813
-0.038368 0.045701 -0.022973
-0.021040 0.122456 -0.007618
-0.039496 0.066296 0.041779
-0.054844 0.043635 0.017724
-0.057769 0.142406 -0.002790
-0.052291 0.124591 -0.007597
-0.008502 0.039101 0.034413
-0.064783 0.179003 -0.056055
-0.070281 0.174210 -0.042129
0.016394 0.128844 0.010005
-0.065597 0.169628 -0.038993
0.042977 0.098717 0.018167
-0.050618 0.059026 -0.010043
-0.023905 0.035013 -0.019833
-0.015364 0.128543 0.006905
-0.008480 0.107265 0.043763
0.037591 0.093720 -0.011166
-0.078764 0.069657 0.012571
-0.083935 0.123564 -0.003774
-0.050891 0.047409 0.018649
-0.087742 0.114422 0.004267
-0.080177 0.155046 0.013722
0.006624 0.128671 -0.002616
-0.044383 0.129390 0.004960
-0.033551 0.037347 -0.016440
-0.088771 0.096987 0.021410
0.032673 0.101648 -0.013631
-0.062489 0.163088 -0.050589
-0.079006 0.166641 -0.035962
-0.031309 0.038453 -0.007734
-0.064496 0.084745 0.044362
-0.028900 0.034838 0.044522
-0.075459 0.159053 -0.009070
-0.089049 0.091592 0.021425
-0.077497 0.128861 0.053330
-0.093108 0.131006 0.019231
-0.057715 0.034451 0.042109
-0.014289 0.039025 0.035088
-0.010910 0.167211 -0.022497
0.020544 0.121905 -0.005387
0.021776 0.115313 0.035173
0.004384 0.046525 -0.027585
-0.057187 0.132410 -0.005999
-0.068915 0.108019 -0.012312
0.056127 0.049406 0.012191
-0.069681 0.035477 0.011429
-0.033814 0.034273 0.026328
-0.058496 0.086150 0.044350
-0.046233 0.128102 0.024271
-0.053499 0.076175 0.042602
-0.009928 0.110288 -0.021044
0.020662 0.125677 0.022985
-0.053893 0.146220 0.024401
-0.064767 0.079507 -0.018110
-0.048662 0.034550 0.038798
0.016768 0.034810 -0.011654
-0.015368 0.096440 0.051772
0.042335 0.097259 0.024161
-0.071639 0.067526 0.026503
0.002759 0.034366 0.017479
-0.056474 0.041367 0.046424
-0.070476 0.123201 0.053357
-0.019247 0.158526 -0.008454
-0.012533 0.050238 0.050201
-0.060725 0.073770 -0.016926
-0.026624 0.046360 -0.027083
-0.029416 0.089010 -0.030595
-0.066297 0.036373 0.037651
0.031330 0.047567 0.032711
-0.083164 0.108847 0.001328
-0.000511 0.097839 0.052434
0.031269 0.080059 -0.019950
0.016367 0.052225 -0.026882
-0.067695 0.134039 0.046063
-0.042488 0.084600 0.042630
0.023137 0.040427 -0.006643
-0.059804 0.034195 0.028001
-0.023175 0.070969 0.048770
-0.076877 0.119334 -0.006883
-0.011126 0.174182 -0.028283
-0.065511 0.080378 0.042623
-0.046979 0.133264 0.008377
-0.012614 0.180121 -0.023627
-0.075614 0.176488 -0.044188
-0.039776 0.115072 -0.015742
-0.065391 0.159256 -0.013057
-0.037486 0.049199 0.039381
-0.016044 0.174209 -0.018116
-0.041628 0.033744 -0.014735
-0.021608 0.035021 0.051106
-0.035396 0.033725 -0.030270
0.015555 0.034804 0.026940
-0.008688 0.058418 -0.033926
-0.064125 0.156393 -0.043120
-0.022040 0.085280 0.055678
-0.069489 0.104131 0.038658
-0.060367 0.119330 -0.009992
-0.057381 0.129734 0.038107
0.003296 0.064080 -0.033574
0.021315 0.039390 0.041121
-0.019440 0.052787 0.047181
0.013750 0.126078 -0.003895
-0.008917 0.035108 0.041468
0.036623 0.111865 0.007477
-0.086121 0.132549 0.047395
-0.087117 0.110466 0.010362
-0.083604 0.133464 -0.001695
0.005508 0.091078 0.054811
-0.029020 0.125445 0.006262
-0.062811 0.150584 -0.024580
-0.065819 0.154852 0.004252
-0.011801 0.084138 -0.038716
0.058918 0.060785 0.004149
-0.049913 0.051514 0.016650
-0.050230 0.126885 0.032632
-0.027888 0.063381 -0.029449
-0.047465 0.135069 0.015589
-0.068226 0.127075 0.050577
-0.028819 0.086243 0.045461
0.029856 0.055277 -0.016807
-0.078142 0.141688 -0.004736
-0.071669 0.147461 -0.028197
0.038713 0.098406 -0.007828
-0.033496 0.057547 0.038254
0.032004 0.097239 -0.014969
-0.010500 0.091174 0.056482
0.038215 0.060321 -0.008740
-0.027393 0.038186 0.004285
-0.049496 0.112660 -0.017175
-0.091586 0.128175 0.008259
-0.064626 0.067476 -0.008467
-0.010491 0.122380 0.034609
0.041180 0.084432 -0.009792
-0.031795 0.065181 -0.020436
0.012201 0.087895 -0.030874
-0.030487 0.053206 0.036753
-0.045802 0.038226 -0.019286
0.026631 0.056397 -0.020783
-0.050454 0.055807 0.032602
-0.049498 0.105619 0.039692
-0.000174 0.120963 -0.012250
-0.080575 0.154604 0.023852
-0.024346 0.162500 -0.005518
-0.093079 0.118839 0.037294
-0.025394 0.106122 -0.022387
-0.028302 0.036240 -0.029908
-0.085663 0.091274 -0.000554
0.030655 0.102095 0.037478
-0.051209 0.118302 0.032872
-0.006311 0.035500 -0.016807
0.035758 0.056285 0.033975
0.036491 0.112064 0.014615
0.046119 0.078688 0.019077
-0.088869 0.094229 0.010430
0.005334 0.055349 -0.030550
0.000079 0.131159 0.005417
0.014731 0.034734 -0.017658
-0.054626 0.151324 0.027198
-0.045501 0.116621 0.032005
0.028906 0.040826 0.029717
-0.066899 0.037202 0.031201
-0.024567 0.182966 -0.016053
0.011384 0.044912 -0.025157
0.043777 0.080449 0.026234
-0.040789 0.084093 -0.021248
-0.038862 0.099995 -0.021828
0.038983 0.104151 0.026189
0.030878 0.090279 0.043076
0.034361 0.111866 -0.002520
-0.087273 0.151714 0.011303
-0.015394 0.099814 0.044364
0.009126 0.108716 -0.019657
0.040570 0.105644 0.013166
-0.056726 0.048040 0.031668
0.021846 0.067263 0.047358
-0.080826 0.114785 -0.002826
-0.002675 0.100539 0.047107
0.034561 0.074095 0.039425
0.013105 0.129972 0.017348
-0.075955 0.133992 -0.006824
0.000359 0.048192 -0.029959
-0.023428 0.063651 0.043634
0.019478 0.087882 0.049193
-0.073030 0.172199 -0.034567
0.040472 0.075278 0.032151
-0.085611 0.106332 0.021360
-0.014990 0.165173 -0.018803
0.027779 0.082221 0.045516
-0.051498 0.084825 0.045390
-0.084644 0.083205 0.023501
0.033379 0.047637 -0.006195
0.006799 0.034750 0.043232
0.045041 0.062518 -0.002655
-0.019701 0.059850 -0.034637
-0.073811 0.093596 -0.014681
-0.063617 0.143654 -0.009541
0.006379 0.037261 0.026487
-0.078035 0.088033 -0.011562
-0.062698 0.149033 -0.016586
-0.006458 0.122156 -0.011480
-0.062903 0.103986 -0.017642
-0.049766 0.165331 0.001860
-0.043393 0.123406 -0.010478
0.045614 0.070882 0.002898
-0.072993 0.084680 0.040033
-0.016254 0.183109 -0.020089
0.042980 0.091610 -0.003806
-0.032368 0.077842 -0.030570
-0.071929 0.126758 -0.008811
-0.044498 0.112567 0.035718
-0.056888 0.099808 -0.019794
-0.082248 0.106043 -0.002623
-0.024726 0.063900 -0.032873
-0.007076 0.038663 0.027893
-0.083257 0.147367 0.037063
-0.063629 0.067210 0.033709
-0.070841 0.099411 -0.014734
-0.076236 0.178558 -0.048710
-0.075295 0.156360 -0.003533
-0.018270 0.166848 -0.012577
0.033691 0.115719 0.004999
0.021026 0.089593 -0.024880
-0.047832 0.095634 -0.022066
0.050022 0.044698 0.006243
-0.056936 0.046073 0.012583
-0.000261 0.035080 0.008961
-0.031551 0.053914 -0.013393
0.000229 0.076922 -0.035755
-0.054497 0.095963 0.043609
0.004960 0.131626 0.015798
0.041753 0.078871 -0.006745
0.015404 0.047740 -0.024690
0.013509 0.116829 0.036687
-0.067328 0.118630 0.051833
-0.064806 0.088140 -0.018888
0.003506 0.061997 0.056450
-0.004602 0.042000 -0.025534
-0.091005 0.124034 0.006283
-0.014191 0.171251 -0.024451
-0.050684 0.067837 -0.013239
0.056575 0.056413 0.002191
-0.065855 0.096709 -0.017316
0.009359 0.052442 -0.029538
-0.061581 0.038088 0.044221
0.018300 0.065119 -0.028525
0.025290 0.067589 -0.023824
-0.073524 0.162430 -0.036956
-0.002910 0.037693 0.011513
-0.052166 0.136903 -0.000627
-0.040987 0.033595 -0.021895
0.044476 0.094537 0.003191
-0.054560 0.061660 -0.007458
-0.078541 0.166665 -0.030964
-0.074609 0.148580 -0.018863
-0.036411 0.175555 -0.009968
0.026072 0.115341 -0.008300
-0.062315 0.136710 0.036224
-0.063452 0.042328 0.013528
-0.014508 0.065923 0.053704
-0.007453 0.100521 0.046910
0.005450 0.097676 0.050720
-0.033116 0.049806 0.039510
-0.050989 0.131098 0.031542
-0.086153 0.148758 0.007210
-0.091334 0.117411 0.028306
-0.082467 0.110080 0.038397
-0.075219 0.155599 0.024202
-0.086324 0.106283 0.007364
0.020687 0.040070 -0.012693
-0.055624 0.033526 0.011757
-0.038829 0.033993 0.000319
0.032241 0.036801 0.002869
-0.085594 0.143251 0.007191
-0.063500 0.093197 0.044392
-0.003170 0.131012 0.017124
-0.022619 0.043673 -0.028542
0.057713 0.052337 0.009178
-0.013690 0.095290 -0.033010
-0.080303 0.072641 0.004221
-0.008918 0.098238 -0.028091
-0.011909 0.128954 0.021205
-0.072774 0.083565 -0.015789
-0.018924 0.181629 -0.016947
0.048266 0.048211 0.027376
-0.078878 0.172865 -0.042775
-0.094058 0.125561 0.024276
-0.042121 0.159153 -0.010343
0.012173 0.034701 0.040784
-0.031858 0.102916 -0.022291
-0.068671 0.165205 -0.052994
0.042126 0.100042 0.000180
-0.048536 0.130681 0.000017
0.033424 0.041486 -0.003514
-0.054442 0.118427 -0.013167
-0.014416 0.034319 -0.019190
-0.048325 0.123967 0.029992
0.041323 0.102851 0.017164
-0.048495 0.090385 0.044531
-0.002493 0.047408 0.049159
-0.011493 0.074516 0.056670
-0.053821 0.091303 -0.022195
-0.062255 0.152185 -0.019578
-0.094461 0.121476 0.021283
-0.048759 0.144210 0.002521
0.015525 0.127932 0.001152
-0.067279 0.176766 -0.059152
-0.084942 0.153595 0.020916
-0.028503 0.061683 0.037387
-0.065521 0.033537 -0.004666
-0.027452 0.175685 -0.008219
0.005518 0.082824 0.056632
-0.055456 0.053337 -0.003382
-0.050113 0.033780 -0.012771
-0.062449 0.155910 0.022857
-0.060198 0.152175 0.033945
0.042136 0.084597 0.029329
-0.005722 0.066981 -0.035266
-0.026071 0.125207 0.017614
-0.054364 0.157330 0.009773
-0.053495 0.112540 0.035826
0.028258 0.063629 -0.020796
-0.061798 0.154608 0.028923
-0.018488 0.107161 0.042158
-0.075497 0.123189 0.053128
-0.030275 0.116055 -0.014822
-0.000794 0.086772 -0.035570
-0.024781 0.076966 -0.037605
-0.021509 0.098352 -0.024262
-0.047764 0.079742 -0.019835
0.050125 0.072315 0.007460
0.055369 0.071129 0.021382
0.026170 0.115347 0.032744
0.031482 0.114431 0.028460
0.021248 0.070712 -0.027599
-0.059239 0.045274 -0.004302
-0.062262 0.155951 0.012773
0.028130 0.110111 0.035584
0.026147 0.087595 0.046714
0.019791 0.106497 -0.016816
-0.072561 0.109721 0.040926
-0.004054 0.039142 -0.012220
-0.030416 0.069253 -0.028455
0.021358 0.055075 -0.026616
-0.003693 0.036690 0.048203
0.029367 0.104500 -0.014674
-0.018505 0.071144 0.054022
0.030443 0.049667 -0.009748
-0.041501 0.088824 0.042593
0.042372 0.054773 -0.006534
-0.038624 0.051996 -0.010752
-0.017813 0.082745 -0.039215
-0.075547 0.151390 -0.009890
-0.068644 0.156175 0.023578
0.010259 0.100444 -0.022345
-0.076712 0.165247 -0.022942
0.056781 0.072463 0.013036
-0.067990 0.154859 0.029665
-0.073988 0.154100 -0.024904
-0.004252 0.094125 -0.033765
-0.009523 0.068837 0.055429
-0.046492 0.097353 0.043142
-0.065227 0.172558 -0.060381
0.037666 0.037438 0.008936
-0.046511 0.049144 0.038796
-0.062719 0.152197 -0.010580
-0.067868 0.063022 0.000881
0.025505 0.103245 -0.017334
-0.035669 0.117866 -0.012678
-0.043493 0.074794 0.042665
-0.050970 0.122064 -0.010998
-0.014489 0.080088 0.056871
0.023776 0.034338 0.008963
-0.042206 0.147853 0.000367
-0.058896 0.106893 -0.017658
-0.029502 0.159581 0.001088
0.044169 0.070660 0.024561
-0.076222 0.098139 0.037199
-0.022897 0.117028 -0.013878
-0.068128 0.152206 0.035663
-0.049674 0.141672 0.012389
-0.091607 0.128323 0.035245
0.029209 0.056377 0.040322
0.011245 0.094317 -0.027853
-0.089602 0.136498 0.024200
-0.033495 0.087465 0.043047
0.035557 0.087831 -0.016984
0.000111 0.036978 0.020027
0.032830 0.035420 0.011666
-0.037561 0.128197 0.007519
-0.046570 0.049017 -0.009749
-0.066568 0.040454 -0.005286
-0.089086 0.122978 0.046421
0.012127 0.053459 0.050750
0.031701 0.117733 0.019986
-0.033000 0.049790 -0.015350
-0.011726 0.065681 -0.036578
-0.093651 0.125496 0.014260
-0.090979 0.143017 0.026635
-0.007492 0.096543 0.053542
-0.012454 0.125711 -0.005191
-0.092408 0.114699 0.015324
-0.068769 0.079368 -0.016582
-0.065193 0.141087 0.040943
-0.057294 0.059745 0.022361
-0.053592 0.114983 -0.015582
-0.047569 0.043288 -0.010934
-0.071962 0.135504 -0.007696
0.004229 0.082456 -0.034192
-0.065026 0.156351 -0.048703
-0.047877 0.155040 0.009628
-0.043677 0.063638 -0.013758
-0.056911 0.047191 0.040726
0.004610 0.092806 -0.032334
-0.029431 0.084706 -0.033614
-0.083003 0.080303 0.000504
0.059066 0.069163 0.018233
-0.081697 0.144555 0.000153
-0.009495 0.082926 0.057844
-0.042804 0.033868 0.026575
0.024271 0.035754 0.000294
-0.062120 0.034476 0.020231
0.004602 0.038898 -0.006522
-0.070570 0.152776 -0.046815
-0.016169 0.117727 -0.014690
-0.052338 0.161184 -0.002819
-0.091721 0.129668 0.030235
-0.026245 0.109573 -0.020030
-0.010188 0.038657 0.000041
-0.017509 0.116845 0.036818
0.027466 0.075465 0.045005
-0.045122 0.033595 -0.011604
-0.059929 0.145383 0.036251
-0.051559 0.162515 0.005124
-0.009599 0.039174 -0.026083
-0.044741 0.149173 0.007045
0.058967 0.055243 0.017183
-0.037481 0.113893 0.034070
0.037397 0.049112 -0.006391
-0.081811 0.136716 0.048659
-0.036451 0.174337 -0.002568
0.046121 0.084831 0.009175
0.008374 0.047945 -0.027218
-0.068614 0.063230 0.022051
-0.068062 0.060659 0.013756
-0.004494 0.088412 0.056908
-0.060494 0.108372 0.038640
0.001939 0.035680 -0.015345
-0.063499 0.097312 0.042615
-0.058401 0.043971 0.024688
0.035858 0.068680 0.037746
-0.024422 0.075270 0.049883
0.005520 0.067475 0.055605
0.039532 0.105566 0.022162
-0.037707 0.069528 -0.016093
-0.084180 0.101927 0.028081
-0.008651 0.051169 -0.031903
0.018960 0.036126 0.019186
-0.088503 0.148521 0.028173
0.024221 0.111888 -0.012580
0.035349 0.095532 0.037211
-0.016034 0.039499 0.039685
0.021883 0.124858 0.002057
-0.067929 0.175140 -0.047072
0.033899 0.059195 0.038340
0.009622 0.129808 0.023218
-0.079118 0.107240 -0.005608
-0.082943 0.079027 0.023521
-0.089923 0.133822 0.038215
0.015901 0.113257 -0.016053
-0.066444 0.151761 -0.040464
0.024386 0.095560 0.045965
-0.056485 0.079142 0.044177
0.055109 0.053930 0.025041
-0.066712 0.155932 -0.004840
0.027564 0.122014 0.008442
0.000472 0.038868 0.025645
-0.003496 0.061941 0.055685
0.016261 0.073678 -0.029555
0.032826 0.061199 -0.016778
0.039220 0.073038 -0.010830
0.045170 0.090388 0.016163
-0.065923 0.105312 -0.014993
0.020484 0.094807 0.047438
-0.017672 0.093357 0.053898
-0.069718 0.155623 0.002826
0.018741 0.074096 0.051748
-0.089571 0.136541 0.032204
-0.053792 0.141510 -0.001138
-0.076456 0.106685 0.035303
-0.022276 0.038252 0.005263
0.003504 0.053385 0.053546
-0.058154 0.033742 0.018165
-0.037987 0.033630 0.006250
0.006477 0.045961 0.048401
-0.017489 0.085645 0.057252
-0.017182 0.038240 0.011747
-0.029331 0.079187 0.043373
0.043527 0.066404 0.026525
-0.072860 0.035501 0.006453
-0.088314 0.103697 0.015374
-0.053759 0.079760 -0.020636
-0.076874 0.069840 0.021631
-0.014260 0.180104 -0.027919
-0.058492 0.063061 0.029608
0.019303 0.121030 0.032512
-0.034870 0.176878 -0.006288
0.019054 0.116198 -0.013231
-0.080549 0.078966 0.030624
0.039785 0.069903 0.032867
-0.060016 0.129661 -0.007422
-0.033656 0.034344 0.036914
-0.088800 0.090145 0.007468
-0.061512 0.072920 0.039793
-0.064028 0.119984 0.047923
0.012752 0.088745 0.053701
0.059353 0.063610 0.021184
-0.021329 0.078303 0.055178
-0.035707 0.034050 0.011751
-0.024131 0.038407 -0.017403
-0.085387 0.097871 0.028006
0.000115 0.110154 -0.020162
-0.009242 0.040787 0.049553
-0.001598 0.039116 -0.025210
-0.000727 0.069749 -0.034387
-0.076120 0.092795 0.038671
0.037484 0.076757 0.036643
-0.009332 0.127279 0.027974
-0.034651 0.126197 -0.000233
0.013326 0.059499 -0.029039
-0.084872 0.119101 -0.002078
-0.049237 0.132883 0.026763
0.060893 0.065125 0.012151
0.012481 0.094960 0.050413
-0.057666 0.143885 0.032448
-0.041277 0.035681 0.042879
-0.014822 0.129108 0.012888
-0.067580 0.144972 -0.019234
0.003486 0.112780 0.041408
-0.019756 0.068553 -0.037898
0.042675 0.075116 0.028262
-0.027124 0.117991 -0.012873
0.044457 0.044487 0.025976
-0.086635 0.094046 0.002378
-0.062033 0.156862 -0.018585
-0.089435 0.099695 0.016394
0.014489 0.099055 0.047648
0.059600 0.056711 0.010171
-0.017674 0.109826 -0.020315
-0.024541 0.034994 -0.028704
-0.055486 0.083403 0.045084
-0.078756 0.154933 0.009837
-0.071309 0.156055 0.010997
-0.071807 0.088779 0.041542
-0.007436 0.129906 0.004057
-0.045514 0.033511 0.003022
-0.089434 0.132252 0.004249
-0.060766 0.079603 -0.019134
0.008825 0.034754 -0.005617
-0.066971 0.163891 -0.017970
0.045419 0.087578 0.003181
-0.058750 0.048219 0.005712
0.048403 0.055384 0.031180
-0.089476 0.140666 0.032176
-0.052316 0.051794 0.025643
0.018710 0.034293 0.002393
-0.017113 0.039076 0.052183
-0.004558 0.115688 -0.016587
0.023345 0.048962 -0.021337
-0.074053 0.172196 -0.048044
0.003963 0.034664 0.000956
-0.018987 0.106280 -0.022556
-0.013550 0.122737 -0.007963
-0.072900 0.106460 -0.010877
-0.055473 0.154191 0.021018
-0.009790 0.079863 -0.037919
0.008972 0.130372 0.003001
0.013922 0.091315 -0.028705
-0.065267 0.132559 0.042478
-0.078304 0.161088 -0.023938
-0.061483 0.077569 0.042158
-0.062492 0.101519 0.042108
-0.033376 0.048364 -0.020339
0.003348 0.034649 0.040814
-0.049129 0.043040 0.044241
-0.029488 0.101537 0.042680
-0.088616 0.100967 0.009409
-0.072893 0.152634 -0.036896
-0.007506 0.045741 0.047458
-0.082270 0.083073 0.031004
-0.091292 0.116401 0.042037
0.060391 0.059543 0.016169
-0.073344 0.067233 0.000494
0.028656 0.108194 -0.012625
0.010520 0.130786 0.009268
-0.051969 0.051442 0.013119
-0.084502 0.091179 -0.004563
0.016279 0.127286 0.024234
-0.000473 0.097253 -0.028990
-0.063516 0.162004 -0.058321
-0.092822 0.122866 0.034274
-0.059074 0.136941 -0.006153
0.013837 0.126165 0.029064
0.007749 0.035126 -0.013682
0.026325 0.122966 0.016536
-0.081477 0.128835 0.052479
-0.092875 0.122834 0.028283
-0.078948 0.130998 -0.005381
0.009401 0.034253 -0.018264
0.022977 0.075489 0.049074
-0.041379 0.044873 -0.020329
0.008509 0.057501 0.052966
-0.001483 0.039026 -0.002256
-0.047096 0.037663 0.045349
0.040370 0.046054 -0.004545
0.019199 0.035237 0.034534
0.040002 0.091367 0.031555
-0.023918 0.038335 -0.004290
-0.001498 0.121047 0.037107
-0.006510 0.077387 0.057954
0.027676 0.118315 -0.003509
-0.069479 0.033705 -0.000209
0.023317 0.080919 0.049634
-0.030250 0.171230 -0.007020
0.011464 0.034779 0.020691
-0.022306 0.126998 0.010173
-0.085366 0.091099 0.028193
0.008936 0.131311 0.014390
-0.006172 0.128513 -0.002286
-0.078642 0.073231 0.000545
0.010280 0.123640 -0.009224
-0.045498 0.045182 0.042049
0.046205 0.079235 0.006184
-0.019492 0.056843 0.048369
-0.027390 0.049980 0.045145
-0.081542 0.091259 0.032846
-0.043394 0.033585 -0.018646
-0.055883 0.046531 0.026676
-0.014590 0.101524 -0.023587
-0.000821 0.128641 -0.002483
-0.091575 0.124221 0.043183
0.060369 0.060917 0.008154
0.032676 0.117173 0.013217
-0.028635 0.091821 -0.027595
-0.075985 0.168851 -0.028495
-0.062582 0.159955 -0.041597
-0.076890 0.073356 0.029126
0.054633 0.070900 0.004922
-0.042616 0.035917 -0.027130
-0.052890 0.106976 -0.018917
-0.065272 0.061308 0.020880
-0.012493 0.168390 -0.016494
-0.070739 0.165621 -0.017917
0.013436 0.129163 0.021750
0.030238 0.072704 0.041955
-0.033212 0.085166 -0.025485
0.045387 0.041347 0.008245
-0.083279 0.124440 0.050465
-0.079335 0.098090 0.034660
0.013687 0.068586 0.053150
-0.000502 0.093872 0.055224
-0.033772 0.121485 -0.008439
-0.032162 0.172645 -0.015639
-0.034832 0.094365 -0.023677
-0.044273 0.043753 -0.014317
-0.062040 0.161574 -0.028587
-0.075455 0.067548 0.016865
0.040798 0.105646 0.009164
-0.039497 0.070505 0.041814
-0.075074 0.077317 0.034901
-0.039476 0.171110 0.000601
0.018557 0.093031 -0.024487
-0.062126 0.045784 0.032679
-0.006546 0.038495 0.010053
0.032243 0.089662 -0.018928
-0.049796 0.086963 -0.021720
-0.090297 0.114585 0.007336
-0.006966 0.038902 -0.005107
0.027400 0.035430 0.019712
-0.036503 0.109752 0.036959
-0.054860 0.046292 -0.006395
-0.088210 0.118977 0.047099
0.045935 0.041381 0.012440
-0.013157 0.175712 -0.020958
-0.060863 0.058308 0.013748
-0.076017 0.156880 -0.021925
-0.072504 0.146981 0.042386
-0.076550 0.072848 -0.005602
-0.062172 0.160005 -0.022587
-0.073871 0.116445 -0.007126
-0.067023 0.060735 0.008430
-0.037967 0.043340 0.041771
0.022995 0.053547 0.043621
-0.051770 0.051602 0.031230
-0.044508 0.128204 0.019741
-0.043288 0.171276 -0.005980
-0.036114 0.162217 -0.013731
-0.010457 0.111397 0.042064
-0.035492 0.064820 0.041064
-0.089622 0.111892 0.015334
-0.007814 0.086863 -0.037202
-0.037684 0.065160 -0.014357
-0.015501 0.120965 0.034127
-0.055731 0.073830 -0.017444
-0.062613 0.033920 -0.009097
-0.001214 0.102594 0.044076
-0.001668 0.056896 -0.032420
0.011514 0.103120 0.046431
-0.043523 0.163746 0.005243
-0.021695 0.038621 -0.009662
0.025536 0.043562 -0.007637
0.015502 0.109895 0.039958
-0.050995 0.054717 0.019151
-0.047227 0.064282 0.037640
-0.077768 0.097580 -0.010556
-0.066567 0.147777 -0.028765
-0.074851 0.078236 -0.010591
-0.015894 0.038721 -0.004875
-0.061339 0.058719 0.009678
-0.004703 0.038779 0.002891
-0.009489 0.119647 0.037243
-0.059210 0.059595 0.002115
-0.068467 0.140894 -0.008323
-0.013671 0.162609 -0.015656
-0.047161 0.033625 -0.001032
0.038349 0.109170 0.005205
0.040324 0.099962 0.026167
-0.023928 0.181600 -0.010098
0.050335 0.053162 -0.003703
-0.074284 0.155582 0.008489
-0.019954 0.180019 -0.022978
-0.030396 0.076268 -0.033568
-0.067588 0.067240 -0.005766
-0.070891 0.040326 0.002828
-0.087769 0.118492 0.001246
-0.008857 0.038531 0.024037
0.012699 0.034276 -0.010037
-0.068119 0.158040 -0.054390
-0.019477 0.038410 -0.001612
-0.049378 0.160927 -0.005747
-0.054474 0.062482 0.029983
-0.080002 0.078647 -0.005566
-0.038589 0.036902 -0.009629
-0.021499 0.100246 0.044442
-0.064076 0.151735 -0.033508
-0.028496 0.094663 0.045103
-0.035665 0.155102 0.002680
0.006561 0.101677 0.046162
-0.020004 0.038500 -0.016671
-0.060816 0.088197 -0.019441
-0.016699 0.057008 -0.034416
-0.044422 0.058776 0.039291
0.004855 0.033994 -0.020785
-0.076596 0.161076 -0.028932
-0.023491 0.120747 0.030044
-0.028040 0.038261 0.000453
-0.022184 0.172691 -0.020892
-0.045739 0.076786 -0.018342
-0.001496 0.091232 -0.034755
-0.031759 0.044978 0.048226
-0.048900 0.033496 0.005964
0.041655 0.090085 -0.008772
-0.062835 0.128322 0.042515
0.011912 0.034221 -0.002638
-0.044398 0.067133 0.040405
-0.085098 0.106195 0.003377
-0.013131 0.035179 0.049391
-0.077620 0.171284 -0.036890
-0.032396 0.038361 -0.002335
-0.057136 0.033370 -0.006471
-0.053482 0.049136 0.033659
0.002986 0.131511 0.007931
-0.069492 0.098623 0.041191
-0.024607 0.157782 -0.002504
-0.056184 0.037462 -0.010574
-0.048091 0.156132 -0.006860
0.053290 0.062107 -0.002186
0.046451 0.076457 0.010186
-0.029505 0.113904 0.034794
-0.020502 0.048648 0.048937
-0.044079 0.033667 -0.005941
-0.072230 0.167360 -0.021343
-0.059377 0.116855 0.038627
0.016041 0.034317 -0.001903
0.035178 0.055930 -0.009644
0.018467 0.091365 0.047919
-0.061683 0.067635 -0.010936
-0.082596 0.086986 -0.005567
-0.020148 0.168260 -0.019602
0.019135 0.102061 0.045384
0.040817 0.042130 0.025529
0.002269 0.115596 -0.018538
0.004917 0.033997 0.009167
-0.060616 0.045948 0.040205
-0.075740 0.144451 -0.005876
-0.062419 0.163107 -0.044596
-0.015282 0.126335 -0.001754
-0.037767 0.081262 -0.020937
-0.029214 0.071930 -0.032514
0.006503 0.122426 0.035017
-0.000059 0.100974 -0.022938
-0.046492 0.159333 0.007795
0.048203 0.070353 0.023128
-0.055172 0.034435 0.035763
-0.063687 0.072235 -0.014980
-0.053561 0.041692 -0.009776
-0.030533 0.178655 -0.005654
-0.008458 0.034635 0.045549
-0.011676 0.038922 -0.009796
-0.014800 0.038214 0.019496
-0.054675 0.033508 0.001167
-0.012625 0.045057 -0.027924
-0.026403 0.038647 -0.014353
-0.016578 0.162548 -0.008317
-0.057392 0.071804 0.039893
-0.064909 0.110873 0.037587
-0.061922 0.112503 -0.014357
-0.003987 0.126095 0.031353
-0.061144 0.169381 -0.057601
-0.082455 0.074839 0.006524
-0.071802 0.181053 -0.055655
-0.009047 0.129209 0.023683
0.022500 0.108418 0.039052
0.037521 0.054091 0.031433
-0.056705 0.119830 0.039025
0.027403 0.041628 -0.004964
0.019428 0.039911 -0.017717
-0.084362 0.099348 -0.002592
-0.005252 0.035009 0.040518
-0.008859 0.130310 0.015052
-0.022856 0.113062 -0.017712
-0.087793 0.086047 0.004482
-0.047613 0.056266 -0.010784
0.043495 0.061067 0.030186
-0.021167 0.095968 -0.027760
-0.047230 0.164057 -0.006794
-0.027363 0.053470 -0.025409
-0.030206 0.064996 -0.026459
-0.084015 0.137600 0.000356
-0.005485 0.051944 0.052897
0.000300 0.061256 -0.033673
-0.065931 0.168025 -0.059060
-0.037454 0.155389 -0.009753
-0.028569 0.039985 -0.029620
-0.004875 0.105927 -0.022510
-0.036624 0.151025 -0.002988
-0.020671 0.052418 -0.030447
-0.084324 0.077527 0.016962
0.018188 0.053509 0.047240
-0.062382 0.147548 -0.007575
0.035711 0.102065 0.032489
-0.053135 0.064157 0.033306
-0.080263 0.147413 0.039708
0.013378 0.053773 -0.028543
-0.045797 0.126831 -0.006056
0.026151 0.092306 -0.021712
-0.076161 0.175035 -0.049996
0.049883 0.047468 0.000307
-0.048792 0.135536 0.020392
-0.002516 0.044264 0.046653
-0.076207 0.090641 -0.013533
-0.039544 0.101505 0.040928
-0.026501 0.124041 -0.001164
0.047380 0.065028 -0.001163
-0.047061 0.146242 0.007186
-0.067266 0.155709 0.009543
-0.081604 0.077475 -0.001500
-0.056723 0.042376 0.020699
0.023399 0.053415 -0.023964
-0.083007 0.076289 0.010523
-0.062019 0.175667 -0.057604
-0.077310 0.159761 -0.015908
0.024499 0.039062 0.033316
-0.062006 0.153738 -0.026583
-0.038314 0.170034 -0.012217
-0.017656 0.048054 -0.029590
-0.089257 0.122633 0.003309
-0.028322 0.074925 0.042497
-0.037490 0.056251 0.039553
0.000686 0.124734 0.033009
-0.027420 0.120460 -0.009428
-0.033092 0.108613 -0.018992
-0.051227 0.150712 0.013515
0.004496 0.118272 0.038136
0.035495 0.064255 -0.013784
-0.088260 0.111934 0.037384
-0.060646 0.034359 0.032922
0.016279 0.042121 0.044311
0.018461 0.047578 0.042256
-0.045523 0.131922 0.011948
0.036907 0.079916 -0.014718
0.003504 0.088376 0.056364
-0.003823 0.085452 -0.037243
0.048512 0.061101 0.030692
-0.016317 0.038490 0.026152
-0.073423 0.071165 -0.006645
-0.070454 0.150585 -0.043458
-0.082953 0.112769 0.000219
-0.032502 0.067547 0.040022
0.006169 0.089540 -0.033097
-0.076393 0.111249 -0.005652
-0.023666 0.038165 0.008685
-0.028128 0.163902 -0.005730
-0.059854 0.046783 -0.000327
0.025271 0.034634 0.016356
-0.024495 0.035776 0.053278
-0.023539 0.112680 0.037998
-0.024243 0.172722 -0.012398
-0.047097 0.168427 -0.002978
0.021880 0.037421 -0.003642
0.013127 0.120538 0.034982
0.000577 0.038885 -0.012936
-0.017619 0.161286 -0.014054
-0.065268 0.179645 -0.060267
-0.073516 0.102656 0.037557
-0.025595 0.125933 0.007520
-0.051736 0.073824 -0.016769
0.002495 0.042775 0.045899
-0.062122 0.042962 0.026694
-0.031766 0.058161 -0.014398
-0.063603 0.156128 0.016643
-0.026861 0.037864 0.013731
0.037747 0.104052 -0.004841
-0.006626 0.045146 -0.028562
-0.018768 0.034185 -0.027695
-0.079448 0.073218 0.021695
0.027666 0.034679 0.013157
-0.032374 0.176483 -0.013441
-0.046827 0.125328 0.026835
0.025571 0.119263 0.029107
-0.054442 0.037313 0.046933
-0.069749 0.170840 -0.053033
-0.077557 0.148654 -0.004886
-0.027188 0.118982 0.030604
0.057354 0.063419 0.002143
-0.027645 0.037611 0.021016
-0.037534 0.168232 0.001753
0.040189 0.075920 -0.008797
0.024281 0.034582 0.005109
0.037206 0.098087 0.032865
-0.038475 0.035193 -0.013587
-0.076077 0.166574 -0.039017
-0.035433 0.038354 -0.008474
-0.027792 0.078218 -0.035961
-0.034128 0.165212 -0.015126
-0.001026 0.034661 0.043494
0.043463 0.077603 -0.003782
-0.089153 0.136419 0.010203
-0.004499 0.108643 0.043502
-0.039750 0.076852 -0.018679
-0.076026 0.151346 0.035951
-0.065884 0.114191 0.045149
-0.011700 0.059941 -0.035283
-0.006843 0.130599 0.010034
-0.041573 0.151549 -0.006356
-0.069412 0.111827 0.045291
-0.074976 0.152739 -0.016900
-0.002812 0.131227 0.010080
-0.004424 0.130145 0.022448
-0.056045 0.148678 -0.001822
-0.087723 0.088858 0.023413
-0.019655 0.063928 0.049726
-0.012092 0.114420 -0.017201
-0.053910 0.133920 0.032587
0.008486 0.095047 0.051630
0.041824 0.102828 0.003180
-0.027142 0.168228 -0.017933
0.034870 0.112104 0.025448
0.035450 0.105907 -0.008155
0.033364 0.036435 0.016371
0.011631 0.047494 0.046425
-0.084882 0.142006 0.041660
-0.059284 0.033620 0.012702
-0.062205 0.033390 -0.002058
-0.062401 0.116928 0.041368
-0.026474 0.048620 0.048583
-0.030600 0.121953 0.024866
0.009197 0.039194 0.045161
-0.068740 0.156349 0.017720
-0.074877 0.073913 0.032573
-0.034139 0.169665 -0.015110
-0.063525 0.139599 0.038030
-0.008557 0.119157 -0.014271
-0.027050 0.033483 -0.026528
-0.069242 0.042219 0.007981
-0.031544 0.153515 -0.004489
-0.069712 0.076416 -0.014726
0.041372 0.097167 -0.003822
-0.061381 0.122656 0.042840
-0.036943 0.158040 0.004374
-0.073345 0.159645 -0.033925
-0.052345 0.059725 0.028746
-0.014744 0.038372 0.008494
-0.006205 0.038993 0.031378
0.000968 0.039114 -0.005575
0.011845 0.080663 0.054099
-0.061923 0.122370 -0.008838
-0.021666 0.162350 -0.015178
-0.021206 0.033670 -0.021802
-0.023370 0.038046 0.016087
-0.057687 0.067720 -0.011833
-0.091438 0.133727 0.016210
0.034222 0.082796 -0.018500
-0.080910 0.126584 -0.005461
-0.051498 0.102890 0.041232
0.026879 0.121193 0.002502
0.043589 0.070610 -0.000777
0.024261 0.044863 -0.013681
-0.059742 0.156334 0.006411
0.009680 0.127274 0.028993
0.019602 0.085835 -0.026987
-0.072820 0.155564 0.004632
0.011175 0.076643 0.054850
-0.069522 0.143851 -0.015008
-0.070740 0.139730 0.046996
-0.072669 0.161352 -0.009911
-0.023126 0.165273 -0.017167
0.040103 0.058962 -0.004530
-0.065344 0.127011 0.047730
0.003801 0.130941 0.021097
-0.069702 0.142554 0.044986
-0.071327 0.169665 -0.026752
-0.026267 0.179961 -0.016969
-0.070114 0.062580 0.006217
0.031995 0.052021 0.035500
-0.026503 0.108470 0.039716
0.039583 0.095367 0.031070
0.041697 0.089922 0.028765
-0.025527 0.113962 0.035326
-0.001035 0.117326 -0.016370
0.012978 0.097565 -0.023300
-0.041668 0.059268 -0.012139
0.054626 0.056229 -0.000786
-0.087620 0.143285 0.010120
-0.002588 0.034889 -0.023742
-0.027065 0.053566 0.037666
-0.033394 0.042041 -0.029577
-0.045784 0.116760 -0.015491
-0.007585 0.039512 0.037828
-0.068875 0.159133 -0.007099
-0.072570 0.179840 -0.050172
-0.027857 0.097298 -0.023991
-0.053886 0.101336 -0.020937
0.024887 0.072744 0.046539
0.047871 0.073326 0.015628
-0.086653 0.145956 0.034841
-0.053361 0.033209 0.019630
-0.033504 0.078910 0.041533
-0.053809 0.119788 0.036174
-0.046485 0.093135 0.043535
0.019924 0.036552 0.038924
0.023921 0.035255 0.022802
-0.058121 0.151582 -0.000807
-0.050499 0.077674 0.043756
-0.022457 0.052413 0.043531
0.010218 0.083693 -0.031617
0.006166 0.034384 0.019971
0.036650 0.084821 0.037239
-0.014975 0.125602 0.027460
-0.091058 0.133686 0.012217
-0.050988 0.034302 0.028011
-0.069694 0.158144 -0.049936
-0.057546 0.057623 0.007744
-0.032496 0.071811 0.040677
0.027114 0.046333 0.037179
-0.074892 0.103540 -0.010856
0.011040 0.072585 0.054623
-0.090013 0.150126 0.013170
-0.057494 0.033331 -0.002859
-0.044902 0.148739 -0.003864
0.050528 0.044598 0.016215
-0.022551 0.093369 -0.033111
-0.070155 0.148741 -0.036649
0.023640 0.036611 0.026972
-0.088462 0.136381 0.006204
-0.017740 0.064229 -0.036622
-0.063695 0.167813 -0.041594
-0.067946 0.128236 -0.009062
-0.063260 0.157387 -0.015161
-0.067951 0.168029 -0.055011
-0.089719 0.129664 0.042595
-0.036860 0.033686 -0.021161
0.050512 0.066502 0.027536
-0.004456 0.112864 -0.019583
-0.032316 0.155148 0.000488
-0.005500 0.070392 0.057296
-0.018992 0.127884 0.015741
-0.055868 0.094155 -0.021739
-0.060640 0.140962 -0.005271
0.002306 0.128418 0.027781
-0.024235 0.040168 0.054185
0.039385 0.042921 -0.002838
-0.024644 0.038117 0.024779
-0.047561 0.036166 -0.012341
0.030420 0.036634 0.021058
0.035499 0.046923 0.030944
-0.041592 0.049155 -0.011197
-0.009514 0.064710 0.055646
0.025242 0.076175 -0.024968
-0.030950 0.037666 0.029281
-0.082040 0.150272 0.033970
-0.050081 0.146304 0.011595
0.048538 0.068276 0.001564
0.005500 0.105744 0.041939
-0.067679 0.073557 -0.013942
-0.044408 0.039486 -0.022300
-0.049078 0.153156 -0.005276
-0.032493 0.093210 0.044432
-0.040661 0.033512 -0.025483
-0.091979 0.132390 0.023225
-0.069771 0.033744 0.003288
0.008233 0.112336 0.040155
-0.051876 0.055074 0.022847
-0.051827 0.094161 -0.021787
-0.081175 0.148690 0.001178
0.028133 0.121698 0.012937
0.043084 0.049674 0.032233
-0.055712 0.155088 0.013690
-0.073800 0.065121 0.008658
0.007962 0.131149 0.006901
-0.064012 0.043221 0.030677
0.004715 0.105070 -0.021280
-0.012538 0.036567 -0.017148
-0.050147 0.145259 -0.000516
0.010197 0.116422 0.037739
-0.058056 0.033490 0.004108
-0.088377 0.125344 0.001280
-0.040966 0.122163 0.027053
0.002187 0.085280 -0.034492
0.003251 0.121420 -0.012784
-0.016492 0.096881 -0.028692
-0.054952 0.160962 0.004336
-0.052498 0.091771 0.044158
-0.070133 0.160982 -0.047936
-0.064525 0.154173 -0.006923
-0.019999 0.185902 -0.020062
-0.033587 0.154463 -0.008389
-0.039173 0.163682 -0.012538
-0.059421 0.039824 0.019624
0.057887 0.060794 0.023844
0.031212 0.117420 0.024075
-0.019035 0.093071 -0.034791
-0.022905 0.094554 0.047802
-0.069708 0.163800 -0.049970
-0.026849 0.155368 -0.004772
-0.053278 0.047679 0.024652
-0.018064 0.122407 0.030816
0.025200 0.081800 -0.024570
-0.062514 0.039944 -0.007517
-0.076552 0.154210 -0.000900
0.013464 0.061695 0.051010
-0.029029 0.160675 -0.013993
-0.024666 0.049240 -0.026908
-0.027012 0.089110 0.047807
0.031954 0.076649 -0.019704
-0.039745 0.172952 -0.002347
0.020087 0.042933 -0.020671
-0.034753 0.111555 -0.018095
0.057131 0.050880 0.015188
-0.031519 0.035124 -0.030659
0.043726 0.090292 0.024167
0.042891 0.040264 0.016655
-0.062741 0.076678 -0.017944
-0.006490 0.122405 0.035478
0.014703 0.049007 0.045620
0.047147 0.043763 0.021636
-0.054323 0.033465 0.008493
-0.080093 0.138964 -0.003792
-0.059878 0.102599 -0.018665
-0.034700 0.080874 -0.023605
-0.093120 0.121503 0.040400
-0.052610 0.063297 -0.010011
-0.058807 0.085416 -0.020821
0.014897 0.036623 -0.020574
-0.055079 0.134447 -0.004126
-0.019787 0.118912 -0.011868
-0.002493 0.118317 0.039019
-0.051604 0.056027 -0.008398
0.043935 0.097351 0.014160
-0.029934 0.046897 -0.026159
-0.070810 0.086505 -0.016618
-0.052185 0.140082 0.022402
0.014267 0.070969 -0.031068
-0.050497 0.098788 0.043510
-0.039492 0.053418 0.039377
-0.056967 0.053503 0.000612
0.045123 0.093189 0.012157
-0.054785 0.033935 -0.012006
-0.076663 0.155608 -0.007891
-0.015822 0.127346 0.022728
-0.086140 0.085909 0.000476
-0.048492 0.071808 0.040533
-0.061863 0.095370 -0.018633
0.031409 0.069544 -0.018778
-0.052612 0.058051 0.024856
0.025396 0.098171 0.043917
-0.040493 0.095866 0.042191
-0.081012 0.073438 0.017550
-0.083185 0.110750 0.032335
-0.069501 0.091616 0.042102
-0.038492 0.090306 0.043464
-0.055495 0.102938 0.041994
0.025863 0.050563 0.038903
-0.044719 0.070998 -0.017101
0.010320 0.060966 -0.029930
0.005348 0.059616 -0.030981
-0.017208 0.172701 -0.023331
-0.050887 0.109845 -0.018628
0.045327 0.051948 -0.005899
0.044557 0.084728 0.024157
-0.073509 0.120392 0.053561
0.031514 0.052577 -0.011782
-0.071819 0.090791 -0.015859
-0.052763 0.115451 0.034109
0.027755 0.061930 0.043561
-0.064968 0.034557 0.030094
0.009236 0.075358 -0.033337
-0.028578 0.042305 0.052193
-0.049773 0.062779 0.034553
-0.049359 0.121175 0.032055
0.000536 0.054866 0.054508
-0.007220 0.099466 -0.025346
0.019523 0.082184 0.051168
-0.007447 0.096102 -0.031803
-0.029274 0.157003 -0.010558
0.043695 0.095927 0.020160
-0.052923 0.125495 0.035753
0.043496 0.055593 0.032240
-0.066387 0.038900 0.034829
0.045300 0.093209 0.008167
0.013117 0.108671 -0.018721
-0.012664 0.051131 -0.031769
-0.027503 0.098801 0.043559
-0.090669 0.139207 0.016179
0.038607 0.061770 0.032849
-0.012770 0.075673 -0.038419
-0.014495 0.092498 0.055609
-0.041119 0.111396 -0.017909
-0.020119 0.043153 0.053142
-0.000488 0.080134 0.057590
-0.039324 0.172677 -0.009927
-0.042760 0.128938 0.012998
0.003852 0.131766 0.012538
-0.065101 0.045855 0.003690
0.040631 0.083375 0.032449
-0.007479 0.091942 -0.035549
0.007737 0.034110 0.002224
-0.034508 0.083202 0.042563
-0.008877 0.098590 0.050958
-0.087104 0.112310 0.031997
-0.025802 0.056410 0.039137
0.010628 0.120330 -0.013675
0.044516 0.087501 -0.001811
-0.085485 0.112639 0.044573
0.039387 0.082888 -0.012779
-0.012509 0.088399 0.056793
-0.044495 0.081785 0.042471
-0.023864 0.082512 0.054759
-0.049931 0.134148 0.000259
-0.077104 0.163136 -0.020201
-0.093920 0.128289 0.021247
-0.022676 0.055238 -0.030434
-0.093660 0.128255 0.017245
-0.008496 0.093902 0.055500
-0.003498 0.096581 0.053579
-0.006496 0.091201 0.056762
-0.032255 0.072209 -0.026495
-0.046735 0.109820 -0.018201
-0.041507 0.060570 0.040699
-0.002796 0.098843 -0.026682
-0.065640 0.117150 0.049004
-0.018678 0.101771 -0.023811
0.000530 0.074591 0.057827
-0.064120 0.162494 -0.021245
0.042281 0.083129 -0.006774
-0.040484 0.081828 0.042912
-0.074509 0.140045 0.047979
-0.094287 0.122796 0.016279
-0.082445 0.140729 0.044922
-0.028029 0.083581 0.047588
-0.074911 0.125246 -0.008047
-0.000502 0.063406 0.056732
0.016488 0.105762 0.043179
0.018533 0.065881 0.049585
-0.064439 0.062772 0.025086
-0.089777 0.091587 0.014444
-0.052586 0.147787 0.020404
-0.035175 0.160922 -0.000114
0.016276 0.036121 0.003963
-0.004501 0.074673 0.058753
-0.078792 0.108745 0.036725
-0.080022 0.102057 0.032403
0.038043 0.109702 0.016604
0.006509 0.077261 0.056177
-0.018509 0.114097 0.038596
-0.075762 0.109947 0.043579
0.059797 0.067804 0.009142
-0.037121 0.127449 0.001796
0.054750 0.049295 0.005214
-0.086273 0.103636 0.023354
0.042518 0.066062 -0.002220
0.039381 0.078035 0.034106
-0.041088 0.128060 0.000342
-0.078482 0.135851 0.050645
-0.002501 0.085665 0.057282
-0.053847 0.066539 0.036375
-0.091933 0.130933 0.010242
-0.080536 0.113778 0.046586
-0.042647 0.117732 -0.014555
0.001514 0.070315 0.056365
0.037406 0.089318 -0.014530
-0.087182 0.130813 0.001289
0.003402 0.039060 -0.024445
-0.065897 0.109505 -0.013166
-0.029496 0.066009 0.038491
-0.092066 0.121362 0.008269
-0.053528 0.131291 -0.004769
-0.071544 0.112225 0.048066
-0.049725 0.141657 0.005385
-0.023157 0.158136 -0.010279
-0.072435 0.064436 0.013140
0.054984 0.053490 0.001212
-0.019534 0.112367 -0.019010
-0.042487 0.039665 0.043393
-0.048965 0.138607 0.014392
-0.069906 0.110817 -0.010639
-0.093111 0.126933 0.027261
-0.021267 0.123736 0.025234
-0.028357 0.057805 -0.024401
-0.045089 0.154663 -0.007525
-0.038403 0.034396 0.032343
-0.036661 0.060670 -0.012154
0.057446 0.056657 0.023149
-0.038479 0.116679 0.032219
-0.006887 0.108791 -0.022603
-0.092950 0.128215 0.012252
-0.091428 0.144743 0.022154
-0.032331 0.062402 -0.017439
-0.035638 0.054834 -0.010504
0.028208 0.070683 -0.022753
-0.013477 0.127753 0.000758
-0.046459 0.034503 0.030552
-0.078033 0.155476 0.021766
-0.061554 0.151288 -0.000478
-0.075086 0.067468 0.003551
-0.040951 0.128783 0.007747
-0.086529 0.125714 0.048030
-0.021725 0.126122 0.002697
-0.078466 0.070327 0.006667
-0.042699 0.034490 0.034875
-0.088834 0.136443 0.040096
-0.071708 0.162415 -0.042947
0.002220 0.079679 -0.034884
-0.062208 0.163133 -0.035591
-0.062347 0.166249 -0.048590
-0.075706 0.112028 0.047285
-0.016264 0.114530 -0.017303
-0.015494 0.051528 0.048971
-0.093492 0.121416 0.012291
-0.031860 0.034189 0.021424
0.034580 0.103262 -0.011336
-0.045497 0.077554 0.042210
-0.085242 0.080497 0.005516
-0.047498 0.111158 0.037164
-0.071990 0.139908 -0.007356
-0.053336 0.138123 0.028078
-0.061615 0.158432 -0.025589
-0.048786 0.057303 0.035144
0.024852 0.068593 0.044679
-0.068015 0.177312 -0.049976
0.000190 0.131527 0.015479
0.010237 0.115602 -0.016559
-0.056493 0.149620 0.030639
-0.005385 0.126096 -0.007729
-0.021364 0.038498 0.030506
-0.087568 0.129767 0.046086
-0.086512 0.081975 0.010502
0.029717 0.113190 -0.007991
0.018488 0.097600 0.047085
-0.032554 0.034898 0.045431
0.028799 0.038552 0.026258
-0.035354 0.120610 0.029103
-0.065002 0.043600 0.010803
0.017807 0.034998 -0.005928
0.005081 0.125851 -0.007572
-0.040751 0.126266 0.019675
-0.057976 0.145744 -0.001916
0.021703 0.104101 -0.018240
-0.080704 0.082774 -0.006567
-0.002651 0.049701 -0.030809
-0.000347 0.125610 -0.007237
0.026583 0.091578 0.045610
-0.055887 0.108356 -0.018128
-0.034501 0.115223 0.032889
-0.064233 0.043171 0.036792
-0.001026 0.107271 -0.021610
-0.065141 0.146773 0.039272
0.032849 0.087639 0.042341
-0.012117 0.097399 0.051343
-0.019633 0.090685 0.054534
0.016311 0.060855 -0.028240
-0.077942 0.075766 -0.006567
-0.066823 0.092351 -0.017257
-0.055705 0.132552 0.035258
0.046433 0.045545 -0.000662
-0.050472 0.141671 0.016403
-0.069893 0.120907 -0.008849
-0.029713 0.050899 -0.020355
-0.073591 0.154201 0.030681
-0.076772 0.071618 -0.002471
0.005432 0.119469 -0.014702
-0.059643 0.062234 0.026549
-0.090834 0.139239 0.020180
-0.084350 0.084253 0.027402
-0.065818 0.165764 -0.024737
-0.029136 0.165225 -0.016186
-0.066152 0.136835 0.042996
-0.041779 0.156522 0.006141
0.021716 0.119158 -0.008410
0.015243 0.065891 0.051871
-0.032372 0.165320 -0.004845
0.029758 0.035297 0.005560
-0.023595 0.180085 -0.019676
-0.073942 0.129646 -0.008207
-0.019627 0.045029 -0.027710
-0.064070 0.113939 0.040621
-0.063466 0.034590 0.037330
0.038647 0.086118 0.034868
