# .PCD v0.7 - Point Cloud Data file format
VERSION 0.7
FIELDS x y z
SIZE 4 4 4
TYPE F F F
COUNT 1 1 1
WIDTH 757
HEIGHT 1
VIEWPOINT 0 0 0 1 0 0 0
POINTS 757
DATA ascii
0.03692741319537163 0.06858925521373749 0.03664380684494972
0.03836943954229355 0.10919713973999023 0.005550520960241556
0.031225886195898056 0.1083441749215126 -0.010430115275084972
-0.06924304366111755 0.15048766136169434 -0.0431068055331707
0.04497119411826134 0.08301859349012375 0.02284844033420086
0.018819991499185562 0.03764590248465538 -0.015024004504084587
-0.0015669215936213732 0.09904231131076813 -0.02591695636510849
-0.03968347981572151 0.10842958837747574 -0.01960558444261551
0.00047552931937389076 0.034746166318655014 0.013707322999835014
-0.010042021051049232 0.10102477669715881 -0.024166768416762352
0.012874560430645943 0.03442166745662689 0.002614295110106468
-0.039571382105350494 0.08484965562820435 -0.021720457822084427
-0.07409166544675827 0.1198134496808052 0.05329328030347824
0.029939038679003716 0.07003559172153473 -0.020558927208185196
0.05032322555780411 0.04957965761423111 0.026570450514554977
-0.012680317275226116 0.054169636219739914 -0.03352541849017143
-0.01653255894780159 0.10195063054561615 -0.023574912920594215
0.0007520929211750627 0.08023865520954132 -0.03549017757177353
-0.026164166629314423 0.04356997087597847 -0.02879372425377369
-0.07614199817180634 0.10196142643690109 0.03610715642571449
-0.04378357529640198 0.16059930622577667 0.005963939242064953
-0.08431677520275116 0.13844767212867737 0.045294731855392456
-0.014388948678970337 0.05609014257788658 0.05116356536746025
-0.0654483437538147 0.0598318837583065 0.011239320039749146
-0.04080970957875252 0.03434453159570694 0.030389700084924698
-0.053912676870822906 0.1366710215806961 0.030183393508195877
-0.07827053964138031 0.13076578080654144 -0.005914162844419479
-0.056136731058359146 0.09777767211198807 0.043187834322452545
-0.09239640086889267 0.13200977444648743 0.017718980088829994
-0.029222875833511353 0.053821515291929245 -0.021999210119247437
0.007621449418365955 0.03476841002702713 0.023726357147097588
-0.07593174278736115 0.14608387649059296 0.04314560070633888
-0.08990013599395752 0.11321092396974564 0.036346178501844406
-0.03888554126024246 0.08030024915933609 0.04306966811418533
-0.045034877955913544 0.03462528437376022 0.037114184349775314
-0.01222967728972435 0.08652221411466599 0.05712306872010231
0.027980195358395576 0.05317982658743858 -0.019615279510617256
-0.022746533155441284 0.043650347739458084 0.05353178083896637
-0.006833713501691818 0.07495517283678055 -0.037140071392059326
0.046179816126823425 0.08262740820646286 0.006941383238881826
-0.022511763498187065 0.0342169888317585 -0.02054802142083645
-0.062322262674570084 0.15950892865657806 -0.039063505828380585
-0.01990455389022827 0.12581050395965576 0.022185368463397026
-0.0376913920044899 0.03364422544836998 0.004640234634280205
-0.08680691570043564 0.10529647022485733 0.01914600282907486
0.04450693726539612 0.08497685194015503 -0.00047122532851062715
-0.0686182752251625 0.12040006369352341 0.052777040749788284
-0.053719986230134964 0.15894731879234314 -0.0022156296763569117
0.0066635580733418465 0.09063629060983658 0.0547061525285244
0.0205991193652153 0.04391316697001457 -0.020255906507372856
-0.06243624910712242 0.16297878324985504 -0.0448845699429512
0.04298411309719086 0.09104278683662415 -0.0041937390342354774
-0.08277763426303864 0.1274675577878952 -0.004677834454923868
-0.05830647051334381 0.14716459810733795 0.03318540379405022
0.03148394823074341 0.049356505274772644 0.034093376249074936
-0.011079014278948307 0.0557565912604332 0.0523957721889019
-0.05138286203145981 0.06314455717802048 0.0331910103559494
-0.06432230770587921 0.14929400384426117 -0.02815203368663788
-0.06309600174427032 0.07792158424854279 -0.018153714016079903
-0.043388158082962036 0.08113864809274673 -0.020213216543197632
-0.008408634923398495 0.044520992785692215 -0.027686789631843567
-0.07694808393716812 0.13110977411270142 0.05282408744096756
-0.024885857477784157 0.0888044536113739 -0.035826873034238815
-0.020577790215611458 0.0591777041554451 0.04716232419013977
-0.0652717649936676 0.1369190663099289 0.04144933819770813
0.0379258468747139 0.10734958946704865 0.025084029883146286
-0.01153666153550148 0.10847797244787216 -0.02165127545595169
-0.02955283410847187 0.05373947322368622 0.03650634363293648
-0.08896373212337494 0.10158149152994156 0.014482663944363594
-0.019903510808944702 0.038827862590551376 0.03440294787287712
-0.05198964849114418 0.16277191042900085 0.004393358714878559
-0.003211977193132043 0.038909297436475754 0.02971450425684452
-0.010950378142297268 0.0783548653125763 -0.037952352315187454
-0.03299976512789726 0.04858037829399109 0.04214560240507126
-0.08745826780796051 0.13901233673095703 0.04110867157578468
-0.07356707751750946 0.10504140704870224 -0.011052196845412254
-0.004950004164129496 0.12564781308174133 -0.008284799754619598
-0.017964566126465797 0.15942080318927765 -0.008086188696324825
-0.07811102271080017 0.15494833886623383 0.025388173758983612
-0.0724448412656784 0.16620120406150818 -0.019139312207698822
-0.008916863240301609 0.12390706688165665 -0.009479725733399391
-0.08700789511203766 0.13042590022087097 0.04700459539890289
0.032338980585336685 0.05873508378863335 0.03941033408045769
-0.08227141201496124 0.15370269119739532 0.009556898847222328
-0.00548383966088295 0.13052353262901306 0.006327101960778236
-0.074454165995121 0.1572137475013733 -0.025367068126797676
0.003043853910639882 0.04687703400850296 0.04932398349046707
-0.021817002445459366 0.07298015803098679 -0.03857630118727684
-0.07614060491323471 0.12113996595144272 0.05283888801932335
0.01450293231755495 0.03476233407855034 0.03204284608364105
-0.052174393087625504 0.03439486026763916 0.031892720609903336
-0.059798453003168106 0.12181317061185837 0.0413866750895977
-0.03239836171269417 0.068087138235569 0.0400739386677742
-0.062438540160655975 0.15084806084632874 -0.01071004755795002
0.03907174989581108 0.06811536848545074 -0.011184100061655045
-0.03681531548500061 0.1623019427061081 -0.0007126346463337541
-0.06701594591140747 0.1515348106622696 -0.042342934757471085
0.04002019017934799 0.10701745748519897 0.007256803568452597
-0.03088059090077877 0.1258048713207245 0.006125508341938257
-0.03220733255147934 0.06108252704143524 -0.01582357846200466
-0.07545309513807297 0.1517723798751831 -0.02079932577908039
-0.07695187628269196 0.13881544768810272 0.04890052229166031
0.024601060897111893 0.061763934791088104 0.04508953541517258
0.06083918735384941 0.06424234807491302 0.015467767603695393
-0.014384585432708263 0.07309594005346298 0.05548899993300438
0.039536409080028534 0.06423120945692062 -0.008441546931862831
-0.009085524827241898 0.16913717985153198 -0.021904366090893745
-0.003408436430618167 0.11776275932788849 -0.015105263330042362
-0.05817807465791702 0.1554671972990036 0.017875276505947113
-0.04958130046725273 0.1416109949350357 0.01189633272588253
-0.038373783230781555 0.04635557904839516 -0.021564871072769165
-0.06726484000682831 0.0709499791264534 0.03574257716536522
0.017564620822668076 0.044921960681676865 -0.023157434538006783
-0.08531372249126434 0.1258167028427124 -0.002965925494208932
-0.08889494091272354 0.11831700056791306 0.04631436988711357
-0.06197768449783325 0.04285714030265808 -0.005616479087620974
0.023112043738365173 0.03475488722324371 0.01878502406179905
-0.09019105136394501 0.13841845095157623 0.022624623030424118
-0.09425762295722961 0.12298686802387238 0.024157563224434853
-0.05748310685157776 0.11659985035657883 -0.013469786383211613
-0.043636295944452286 0.03355056792497635 -0.01969819888472557
-0.0615597628057003 0.04541910067200661 0.03936353698372841
0.0032339703757315874 0.11167846620082855 0.04196125268936157
-0.08143038302659988 0.10843129456043243 0.029027653858065605
0.042227230966091156 0.09199315309524536 -0.005705640651285648
-0.021845607087016106 0.045943547040224075 -0.027780508622527122
-0.08453574776649475 0.08979763090610504 0.02890263870358467
-0.08442240953445435 0.08900182694196701 -0.003935127053409815
-0.05757744237780571 0.155056431889534 0.021659228950738907
0.007786877453327179 0.035842493176460266 0.026191014796495438
0.04120340943336487 0.06713417172431946 -0.006234181113541126
-0.0719294473528862 0.1057729497551918 -0.011738168075680733
-0.0477614663541317 0.03967854008078575 0.044916074723005295
-0.011204824782907963 0.17555032670497894 -0.02281496860086918
-0.05740591138601303 0.03355418145656586 0.008721455931663513
-0.020843328908085823 0.03811369836330414 0.017125658690929413
-0.06643649935722351 0.17242664098739624 -0.044129565358161926
-0.07713572680950165 0.07736342400312424 -0.00814138725399971
-0.060349512845277786 0.033451709896326065 0.0024675605818629265
-0.03330058977007866 0.07115697115659714 0.04101752117276192
-0.08065851777791977 0.07190889865159988 0.015776904299855232
-0.011201346293091774 0.1687135547399521 -0.017683284357190132
0.021500077098608017 0.04406166076660156 -0.01819242537021637
0.03683122247457504 0.038416359573602676 0.020078137516975403
-0.05229075998067856 0.14656803011894226 0.01848437823355198
0.0009241298539564013 0.11092320084571838 -0.020103780552744865
0.01691521517932415 0.0620289072394371 -0.028375273570418358
-0.08075416088104248 0.09671125560998917 0.03371566906571388
0.0029668656643480062 0.04748765006661415 -0.02887052670121193
0.05236076936125755 0.05127183720469475 0.025854039937257767
-0.06898351013660431 0.09932215511798859 0.041097283363342285
-0.08257575333118439 0.13803747296333313 0.04705202579498291
-0.06625030189752579 0.11383751779794693 -0.011157805100083351
0.021084075793623924 0.07234185189008713 -0.027389438822865486
0.02676958031952381 0.06787969917058945 0.043600425124168396
0.027475951239466667 0.034684911370277405 0.009747951291501522
-0.022843532264232635 0.10110504925251007 0.04420805349946022
0.023977581411600113 0.07250690460205078 0.04752518609166145
-0.051204465329647064 0.14212924242019653 0.01806391030550003
-0.06647169589996338 0.15547235310077667 0.007998999208211899
0.03454411029815674 0.0990152359008789 -0.012832656502723694
-0.06444919109344482 0.03481166064739227 -0.007919572293758392
-0.05587443709373474 0.1367286592721939 -0.003924245946109295
-0.05799385532736778 0.03415455296635628 0.026101810857653618
-0.025889696553349495 0.15929704904556274 -0.012583496049046516
-0.06367877870798111 0.15996693074703217 -0.017828043550252914
-0.06077700853347778 0.03358325734734535 -0.009158026427030563
-0.022088564932346344 0.03864556923508644 -0.011919684708118439
-0.05682633817195892 0.033543869853019714 0.0033375693019479513
-0.042046189308166504 0.10487982630729675 -0.0206267312169075
-0.06663542985916138 0.03360171243548393 -0.0036276238970458508
-0.026375511661171913 0.17412060499191284 -0.018933696672320366
-0.05319992080330849 0.1556338518857956 -0.0033333501778542995
-0.066766157746315 0.07576395571231842 0.03939974680542946
-0.060537319630384445 0.04758668690919876 0.004900229629129171
-0.06516026705503464 0.045948684215545654 0.004500487819314003
-0.08618775755167007 0.1529112011194229 0.021581506356596947
0.005976192653179169 0.11470762640237808 0.040090546011924744
-0.02705274149775505 0.12444130331277847 0.00024340767413377762
-0.025316888466477394 0.05829951912164688 -0.03022374026477337
-0.04573333263397217 0.09111564606428146 -0.021915722638368607
-0.07392238825559616 0.09206416457891464 0.0404643639922142
0.03084830567240715 0.050266679376363754 0.03567987307906151
-0.03910643979907036 0.15717506408691406 -0.010632255114614964
0.010347547009587288 0.03422972932457924 -0.0019032860873267055
0.007298924028873444 0.061002232134342194 -0.03074820712208748
-0.060588572174310684 0.09670472890138626 -0.01885407231748104
0.009196899831295013 0.10707154870033264 -0.01998893916606903
-0.08235232532024384 0.07641876488924026 0.020279496908187866
-0.02436852641403675 0.18180592358112335 -0.017581673339009285
-0.004291972611099482 0.04248015582561493 0.04785078018903732
-0.006422682199627161 0.045741692185401917 -0.029008490964770317
-0.0681743323802948 0.1682126671075821 -0.05466349422931671
-0.003929301165044308 0.045385267585515976 -0.0282803475856781
0.03344094753265381 0.0809740498661995 -0.018622975796461105
-0.06837254017591476 0.14752483367919922 -0.029296834021806717
-0.013056487776339054 0.03873137757182121 -0.004936233628541231
0.05925216153264046 0.064450204372406 0.00564726535230875
-0.07042362540960312 0.14464834332466125 -0.017522038891911507
0.011858362704515457 0.12940528988838196 0.022850776091217995
-0.025812814012169838 0.08810620754957199 -0.03571880981326103
0.05451877415180206 0.05760916322469711 0.02746259979903698
-0.07380246371030807 0.15324904024600983 -0.030040450394153595
-0.05375048145651817 0.03376654163002968 0.021306702867150307
-0.04097095504403114 0.08344604074954987 -0.021060071885585785
-0.07304482907056808 0.15948627889156342 -0.00704727740958333
-0.08489596098661423 0.07815076410770416 0.01628088392317295
-0.010813212022185326 0.08853981643915176 0.05668100342154503
-0.067841537296772 0.15590935945510864 0.010833842679858208
-0.03473525121808052 0.105718694627285 -0.02045912854373455
0.014978727325797081 0.035432565957307816 -0.01851033605635166
-0.0854155495762825 0.10877981036901474 0.006256909109652042
-0.07604865729808807 0.09298625588417053 0.03870069980621338
-0.07438179850578308 0.14765436947345734 -0.016582753509283066
-0.09149891138076782 0.141588494181633 0.016216516494750977
-0.06893892586231232 0.06187998503446579 0.006151474080979824
-0.02205333672463894 0.1849163919687271 -0.01787162758409977
-0.030824286863207817 0.06945018470287323 -0.02725125662982464
-0.03460940346121788 0.0997575968503952 0.04257384315133095
0.030369805172085762 0.07811931520700455 0.04378427937626839
-0.015247824601829052 0.038264766335487366 0.01146333385258913
-0.059709757566452026 0.09941861778497696 -0.01885206066071987
-0.08862931281328201 0.08907441794872284 0.006640209350734949
-0.001231054775416851 0.09437791258096695 0.055052101612091064
0.03058968111872673 0.03875222057104111 -0.0017398388590663671
-0.028750183060765266 0.08161452412605286 0.045807138085365295
-0.052707232534885406 0.12262735515832901 -0.009543947875499725
0.0453057587146759 0.05759844928979874 0.032036811113357544
0.024890076369047165 0.03755326196551323 0.027736647054553032
-0.025425633415579796 0.1568066030740738 -0.008751977235078812
-0.0711115300655365 0.1477781981229782 -0.030749663710594177
0.012504717335104942 0.13026347756385803 0.01617266610264778
0.04086681827902794 0.03902287408709526 0.012109188362956047
-0.0805138424038887 0.07646726816892624 0.025925541296601295
0.045244209468364716 0.09275301545858383 0.011148937977850437
-0.09285950660705566 0.12833759188652039 0.02690085768699646
-0.017918098717927933 0.06322044134140015 -0.03620763123035431
-0.015798039734363556 0.03853875771164894 0.028182851150631905
0.0349452830851078 0.06710903346538544 0.038723792880773544
0.04226858541369438 0.05602256581187248 -0.006012860219925642
-0.05969957634806633 0.07538505643606186 -0.018013210967183113
-0.09315837919712067 0.12156889587640762 0.03664018213748932
-0.04496093839406967 0.1300273835659027 0.01862446218729019
0.018757808953523636 0.12362997233867645 0.028826698660850525
-0.06400275975465775 0.166000097990036 -0.03228027746081352
-0.05802050232887268 0.13764391839504242 0.033194657415151596
-0.009448452852666378 0.09322071075439453 0.055819302797317505
-0.07422785460948944 0.15758726000785828 -0.004758171737194061
-0.0824117437005043 0.1546277552843094 0.016506299376487732
-0.0721958577632904 0.1780955046415329 -0.04773543030023575
-0.016924679279327393 0.12292741239070892 0.030619002878665924
-0.00665433332324028 0.06987795233726501 0.05678306519985199
-0.008864952251315117 0.10960295796394348 -0.021872496232390404
0.04611443355679512 0.0820343941450119 0.013459856621921062
-0.0840635597705841 0.1071629524230957 0.02510078251361847
-0.09388899803161621 0.12586365640163422 0.02474779449403286
-0.027780048549175262 0.17472754418849945 -0.00837585236877203
0.006421088241040707 0.1315913200378418 0.010335888713598251
-0.03898698464035988 0.04139470309019089 -0.02693898044526577
-0.055932097136974335 0.1537478268146515 0.025777334347367287
-0.08233032375574112 0.13173769414424896 0.051160626113414764
-0.06871036440134048 0.16877718269824982 -0.02718302048742771
0.015817012637853622 0.08925023674964905 0.05138011649250984
-0.044272344559431076 0.04063096269965172 -0.021285049617290497
-0.06647869944572449 0.15551474690437317 -0.052111200988292694
0.018007177859544754 0.10938841849565506 0.039516739547252655
-0.05422656610608101 0.15765880048274994 -0.002133826958015561
-0.02988995611667633 0.05481107532978058 -0.02032744325697422
-0.03447135165333748 0.06538660079240799 -0.015269490890204906
0.04491936042904854 0.07287977635860443 0.0014853831380605698
-0.0554436556994915 0.041416019201278687 -0.009287063032388687
-0.006367775145918131 0.0955166444182396 -0.03269379213452339
-0.020782936364412308 0.06995031982660294 0.05191931873559952
0.0003329147584736347 0.10043125599622726 0.04714512825012207
-0.019489001482725143 0.0770755261182785 -0.03898262977600098
-0.036291830241680145 0.15645544230937958 0.0038587814196944237
0.010990273207426071 0.06471451371908188 0.053652286529541016
-0.04628531634807587 0.13253174722194672 0.01832154393196106
-0.04679124057292938 0.1598372608423233 0.0076321084052324295
-0.03198225051164627 0.05856814607977867 -0.014103404246270657
-0.01910044625401497 0.18638594448566437 -0.01673150435090065
-0.06120380759239197 0.14855098724365234 -0.0023747265804558992
0.010960269719362259 0.10652303695678711 0.04260380193591118
-0.0852888971567154 0.10330663621425629 0.001476658508181572
-0.04224320873618126 0.11798176169395447 -0.01436295174062252
-0.04233096167445183 0.1275435984134674 -0.002248510718345642
-0.05779989808797836 0.03531021624803543 0.04542779177427292
-0.08187460154294968 0.11055886745452881 0.04221281036734581
-0.03373263403773308 0.11999481916427612 0.02917770855128765
0.0025621741078794003 0.09871720522642136 -0.02450743317604065
0.01041579619050026 0.03439228981733322 -0.005262359045445919
-0.02744515985250473 0.10436040163040161 -0.023041723296046257
-0.07098063826560974 0.06723646074533463 -0.002213429193943739
-0.06455982476472855 0.1642889678478241 -0.024358324706554413
0.03551344573497772 0.050732679665088654 -0.006688834633678198
-0.0465812161564827 0.12699949741363525 -0.005487463437020779
-0.06666748225688934 0.07561155408620834 -0.016054147854447365
0.04299572482705116 0.10035005211830139 0.012600185349583626
-0.052733030170202255 0.05794273689389229 0.023015502840280533
-0.052092358469963074 0.05417269840836525 0.02684876322746277
0.001552174217067659 0.039081819355487823 -0.004466275684535503
0.027793044224381447 0.11923574656248093 0.026678910478949547
0.04157968983054161 0.07198551297187805 -0.007341020740568638
0.002550088567659259 0.1102304607629776 -0.020200537517666817
-0.00045202759793028235 0.03737259656190872 -0.024867912754416466
0.05898144468665123 0.05782508850097656 0.00604817271232605
-0.05039067938923836 0.06665246188640594 0.036873556673526764
0.025329716503620148 0.11272059381008148 0.035037118941545486
-0.05538551136851311 0.14678306877613068 0.029687846079468727
-0.01930929906666279 0.1725035309791565 -0.01546983141452074
-0.09345918148756027 0.12817277014255524 0.015529281459748745
-0.0172074306756258 0.1639270782470703 -0.009890016168355942
0.057013679295778275 0.05397729575634003 0.022500552237033844
-0.023052191361784935 0.12375748157501221 0.023597314953804016
-0.07441143691539764 0.15593278408050537 -0.0005521171260625124
0.005132889375090599 0.11892243474721909 -0.015351089648902416
-0.05290767550468445 0.06411977857351303 0.0333297960460186
-0.026973696425557137 0.07914300262928009 -0.036710187792778015
-0.08695050328969955 0.10619203746318817 0.017237553372979164
-0.047654375433921814 0.03658759593963623 -0.012354047037661076
-0.015327799133956432 0.09369052946567535 0.05472182855010033
-0.05628121644258499 0.04981579631567001 -0.0027518942952156067
0.03731968253850937 0.10376588255167007 -0.006549412850290537
0.05679517611861229 0.0720917135477066 0.010073591955006123
0.024983275681734085 0.09674836695194244 -0.02071860060095787
-0.004895852413028479 0.0975828617811203 -0.0292546134442091
0.016049418598413467 0.08505339920520782 -0.029188744723796844
-0.05728315934538841 0.044594649225473404 0.0440787710249424
-0.035533975809812546 0.15145570039749146 -0.002661794191226363
-0.0877072811126709 0.1303068995475769 0.04568946361541748
-0.08452171832323074 0.1272786408662796 0.05030842497944832
-0.05113987252116203 0.04216841608285904 -0.010475614108145237
-0.06775879859924316 0.18026147782802582 -0.05429781600832939
-0.06376226991415024 0.044305942952632904 0.032656267285346985
0.032829929143190384 0.038206376135349274 -0.0001223696890519932
-0.007924324832856655 0.10323063284158707 -0.023409701883792877
0.014714060351252556 0.03497720882296562 0.04040158912539482
0.0003205297398380935 0.0349046066403389 0.008049830794334412
-0.0721164122223854 0.15609824657440186 0.011672097258269787
-0.08190255612134933 0.08010824769735336 -0.0025204673875123262
0.008890354074537754 0.03448588028550148 -0.004273391328752041
-0.08750899136066437 0.1384543776512146 0.0069679818116128445
-0.009977055713534355 0.09893205016851425 -0.026086851954460144
-0.07304420322179794 0.08042135834693909 -0.014239948242902756
-4.8003927076933905e-05 0.07662098854780197 0.058233946561813354
-0.02679337188601494 0.08899401873350143 0.04818563535809517
0.04825384542346001 0.0485198013484478 0.02765284851193428
-0.02838500589132309 0.03826555237174034 0.0009298531804233789
-0.07455568760633469 0.10023719817399979 -0.012515871785581112
0.03696808964014053 0.10120203346014023 -0.009421472437679768
0.03209206089377403 0.10361768305301666 0.03553062677383423
0.0202482920140028 0.05905209109187126 0.04842256009578705
0.012611341662704945 0.1193307638168335 -0.013801462948322296
-0.03959032893180847 0.03445988520979881 0.026189878582954407
-0.016131436452269554 0.08656690269708633 0.05680270493030548
-0.027715791016817093 0.07973694801330566 0.046909399330616
-0.0436658076941967 0.12972620129585266 0.009374142624437809
-0.025605512782931328 0.1784614771604538 -0.018539169803261757
0.04578041285276413 0.08478802442550659 0.005535236559808254
-0.03671404719352722 0.05694521591067314 0.03945823758840561
-0.05563632398843765 0.03353666141629219 0.013739935122430325
0.03785699978470802 0.11005353182554245 0.015865514054894447
0.009329156018793583 0.07104005664587021 -0.03261525183916092
0.024286415427923203 0.10369651764631271 -0.017579657956957817
-0.00014772493159398437 0.05475886911153793 0.05473718419671059
-0.07577851414680481 0.07610950618982315 0.033257223665714264
-0.02235732041299343 0.1778073012828827 -0.02120404690504074
-0.0858282744884491 0.11089323461055756 0.0056305271573364735
-0.058026984333992004 0.13584549725055695 0.03447171300649643
-0.06282670050859451 0.1610143929719925 -0.022360792383551598
0.021658265963196754 0.04607626050710678 -0.019328337162733078
-0.02592126466333866 0.18275809288024902 -0.011941991746425629
-0.01749326102435589 0.06873203814029694 -0.03816158324480057
0.001365865464322269 0.13156302273273468 0.010495317168533802
-0.0180735494941473 0.08628083765506744 -0.03860648721456528
-0.0681690126657486 0.134096160531044 -0.0083996020257473
-0.03392061963677406 0.1260332316160202 0.00038064701948314905
-0.059740208089351654 0.04333935305476189 0.024894507601857185
0.049096349626779556 0.04329073801636696 0.011666836217045784
-0.024638228118419647 0.06619887053966522 0.043189823627471924
-0.04411085695028305 0.11721041053533554 0.031652480363845825
-0.004435084294527769 0.0390995517373085 -0.011002031154930592
-0.040454454720020294 0.06705130636692047 0.04171367362141609
-0.07690296322107315 0.1535111516714096 -0.007013385184109211
0.001747328438796103 0.09016726166009903 -0.033878885209560394
-0.014467041939496994 0.12286069989204407 0.0324367880821228
-0.029193121939897537 0.060561858117580414 -0.023988036438822746
-0.02577364258468151 0.03359169140458107 -0.02440454810857773
-0.07600051909685135 0.13582855463027954 0.05071074515581131
-0.06265095621347427 0.15927328169345856 -0.0408809632062912
-0.08781712502241135 0.1360684484243393 0.00431022560223937
-0.056463632732629776 0.15144790709018707 -0.001553037785924971
-0.0778827965259552 0.12166961282491684 -0.006629117764532566
-0.02803201414644718 0.08659970760345459 0.04699094593524933
-0.0499100387096405 0.05173865333199501 0.016661496832966805
0.04852554574608803 0.05269920453429222 0.0302214827388525
-0.011499323882162571 0.03421762213110924 -0.02442988008260727
-0.033922407776117325 0.12392584979534149 0.023445187136530876
0.006934568285942078 0.06528105586767197 -0.03239676356315613
-0.050784964114427567 0.07996129989624023 -0.020386558026075363
-0.06754684448242188 0.06139729544520378 0.01835966482758522
-0.08914076536893845 0.13605472445487976 0.027261333540081978
0.027149023488163948 0.047229841351509094 0.037423860281705856
-0.07255535572767258 0.16443637013435364 -0.04196521267294884
-0.04924876242876053 0.04051361605525017 -0.011424017138779163
0.044401735067367554 0.08378487825393677 -4.502314823184861e-06
0.03706897050142288 0.1046438068151474 0.02898012474179268
0.005840592086315155 0.03590964525938034 -0.013899809680879116
-0.07657314836978912 0.1526835560798645 -0.009523570537567139
0.0033712838776409626 0.12292975932359695 -0.010808498598635197
-0.046896565705537796 0.1281042844057083 -0.0027170523535460234
-0.005112922750413418 0.03872416913509369 0.0020534361246973276
-0.08959346264600754 0.1125723347067833 0.019397448748350143
-0.05891704931855202 0.03362921625375748 0.012683351524174213
-0.004505579359829426 0.038561414927244186 0.022793985903263092
0.03828081861138344 0.09876445680856705 -0.008505107834935188
-0.037272173911333084 0.06278573721647263 0.041265904903411865
0.034887783229351044 0.11031458526849747 -0.003782861400395632
-0.056477051228284836 0.05595304071903229 0.006916379556059837
0.027627447620034218 0.0815180093050003 -0.022527726367115974
-0.06239360198378563 0.15166732668876648 -0.02263440191745758
-0.020245352759957314 0.09500203281641006 -0.031209265813231468
-0.06445734202861786 0.15334048867225647 0.03335399553179741
-0.06553158164024353 0.10967183113098145 -0.013331182301044464
-0.05552273243665695 0.054092057049274445 0.008638499304652214
-0.05955244600772858 0.1539936363697052 0.02994736284017563
-0.05866563692688942 0.03355266898870468 0.00790699478238821
-0.07637687027454376 0.16825608909130096 -0.028076961636543274
-0.06429878622293472 0.15512697398662567 -0.041098978370428085
-0.07811952382326126 0.17334133386611938 -0.04171089455485344
-0.05336892232298851 0.1467611938714981 0.023277275264263153
-0.03357444331049919 0.16204936802387238 -0.001888953847810626
-0.07325120270252228 0.06486255675554276 0.015247534960508347
-0.044283147901296616 0.11348006874322891 -0.016288256272673607
0.010249840095639229 0.05555038899183273 -0.03003552556037903
-0.0633564367890358 0.10911261290311813 -0.014971665106713772
-0.0616128146648407 0.11243114620447159 0.036647893488407135
0.05322081595659256 0.05835764482617378 0.028776364400982857
-0.037401970475912094 0.12277304381132126 -0.009303399361670017
-0.014817371033132076 0.10825028270483017 0.042477671056985855
0.029224786907434464 0.06553059816360474 0.042496152222156525
0.00011981269926764071 0.0857638567686081 -0.03553661331534386
-0.03481431305408478 0.15292024612426758 -0.006440489552915096
0.03350505977869034 0.0575764961540699 -0.013640183955430984
-0.09258177131414413 0.12428361922502518 0.04047304391860962
-0.03768520429730415 0.1282069832086563 0.009278025478124619
0.015955543145537376 0.06447067856788635 0.05097692087292671
0.02325870469212532 0.08637852966785431 0.0484529472887516
0.042041562497615814 0.060319699347019196 -0.0038171352352946997
-0.04546208307147026 0.062522292137146 -0.013289779424667358
-0.04798457399010658 0.0335526168346405 -0.00606655003502965
-0.02150329388678074 0.03834240883588791 -0.0009456445113755763
0.021520033478736877 0.053465619683265686 0.045250747352838516
-0.07919315993785858 0.14618724584579468 0.04184767231345177
-0.06916781514883041 0.08158676326274872 -0.01710718870162964
-0.016537312418222427 0.17932119965553284 -0.025875817984342575
0.04530327394604683 0.08364254981279373 0.0030241820495575666
-0.049268826842308044 0.1358698308467865 0.021275321021676064
-0.030455850064754486 0.11573497205972672 -0.015127611346542835
-0.08577978610992432 0.1517593264579773 0.026671340689063072
-0.012462020851671696 0.1157490536570549 0.03909542039036751
-0.04458589479327202 0.17032989859580994 -0.0050740549340844154
-8.692866686033085e-05 0.08464027941226959 -0.03605252876877785
-0.02922644279897213 0.049544163048267365 0.04398616775870323
-0.06430507451295853 0.059610765427351 0.01584857702255249
-0.07854858785867691 0.16432812809944153 -0.028111975640058517
-0.07032369077205658 0.17818525433540344 -0.04913708195090294
-0.029079684987664223 0.12159347534179688 0.024781955406069756
-0.0744146853685379 0.15650072693824768 -0.024146651849150658
-0.07120826840400696 0.08658085763454437 0.04148578271269798
-0.07331261038780212 0.0664340928196907 0.02050374262034893
-0.027951210737228394 0.06358396261930466 -0.029446842148900032
-0.07732029259204865 0.10127630829811096 0.03537991642951965
-0.08062893152236938 0.10998424887657166 0.04090789705514908
0.019563760608434677 0.12150787562131882 0.03182061016559601
-0.026586467400193214 0.0343901664018631 -0.028191547840833664
0.023193437606096268 0.10610494762659073 -0.01631074771285057
-0.023916227743029594 0.1789790391921997 -0.019770314916968346
0.04349261149764061 0.07824503630399704 0.026713090017437935
-0.09418920427560806 0.12694554030895233 0.021992497146129608
-0.08525680005550385 0.08859775215387344 -0.001924038166180253
-0.040564242750406265 0.1712658554315567 -0.00011517880921019241
-0.054720740765333176 0.12046509236097336 0.03737812116742134
-0.03435921296477318 0.1270693987607956 0.0051927994936704636
-0.049172721803188324 0.034569304436445236 0.03893677517771721
-0.08196838200092316 0.1095186322927475 0.028813010081648827
-0.08283111453056335 0.1103191152215004 0.03425569459795952
-0.00710931746289134 0.12927991151809692 0.024676742032170296
-0.08868228644132614 0.08838453143835068 0.007822936400771141
0.012306352145969868 0.07503432780504227 -0.03085203655064106
0.04011187329888344 0.048524219542741776 0.0321979783475399
-0.021142050623893738 0.06229811906814575 0.046723537147045135
-0.06428006291389465 0.037199024111032486 0.016765808686614037
-0.056595079600811005 0.11892184615135193 -0.011843002401292324
0.005242372862994671 0.13151395320892334 0.01687508262693882
-0.031806305050849915 0.06410595029592514 -0.01970716193318367
-0.05698169767856598 0.05757204815745354 0.009469077922403812
-0.02807791531085968 0.07460475713014603 0.04264506697654724
-0.009831221774220467 0.11064083129167557 0.04249509423971176
-0.04425665736198425 0.11617056280374527 0.03265102207660675
-0.0523919053375721 0.1501888930797577 0.017991527915000916
0.05601353943347931 0.07284316420555115 0.015556978061795235
0.03660620376467705 0.09290405362844467 0.03692898154258728
-0.05588649958372116 0.04711230844259262 0.012029924429953098
0.01679343916475773 0.03568585589528084 0.041139423847198486
0.028672784566879272 0.07935263216495514 -0.021869076415896416
-0.061611875891685486 0.04349049553275108 0.04190856218338013
-0.011539134196937084 0.03693772107362747 -0.016825221478939056
0.027846941724419594 0.047057654708623886 -0.012158874422311783
0.028317900374531746 0.11437179893255234 -0.007619165815412998
-0.069577157497406 0.12020853906869888 -0.008780731819570065
0.020945029333233833 0.08969907462596893 -0.024888284504413605
-0.07036179304122925 0.06947407126426697 -0.0060882726684212685
0.05564936622977257 0.07131773978471756 0.0064500668086111546
-0.08761794865131378 0.13537393510341644 0.04326750338077545
0.03681482374668121 0.11144513636827469 0.0047262199223041534
-0.07544074207544327 0.16729635000228882 -0.04077824577689171
-0.002099418779835105 0.09604161977767944 0.0540323443710804
0.03636891022324562 0.03698504716157913 0.014158717356622219
-0.08554106205701828 0.108223095536232 0.02072717808187008
-0.06860189139842987 0.1616424173116684 -0.05328091233968735
-0.0780780091881752 0.1189013421535492 0.05133732408285141
-0.06444869190454483 0.03360887989401817 0.006663187872618437
-0.01228318177163601 0.038501638919115067 0.0016803441103547812
0.032159894704818726 0.05213877186179161 0.035389482975006104
0.01293146051466465 0.03558481112122536 0.0433468222618103
-0.08876653760671616 0.13738694787025452 0.0103965038433671
-0.058651868253946304 0.1087847501039505 0.038494665175676346
-0.03661568462848663 0.0714406743645668 0.04200631380081177
-0.06171748787164688 0.16688014566898346 -0.05491574853658676
0.036378130316734314 0.03985828533768654 0.024639397859573364
-0.004666892811655998 0.04878035932779312 -0.030482597649097443
-0.07550609111785889 0.15128521621227264 -0.013212675228714943
-0.015887169167399406 0.05096394941210747 0.04844334349036217
-0.01606329344213009 0.09901171922683716 -0.024219758808612823
-0.02232212759554386 0.03802592679858208 0.01586069166660309
-0.06410957127809525 0.16968834400177002 -0.044449299573898315
-0.016914984211325645 0.038226813077926636 0.020878177136182785
-0.03647811338305473 0.04672874137759209 -0.02238532342016697
-0.07701586931943893 0.15485969185829163 0.006812405306845903
-0.023877354338765144 0.03413056209683418 -0.02079904079437256
-0.05073532462120056 0.04063902795314789 -0.011105424724519253
-0.012680810876190662 0.09371034055948257 0.05523814260959625
-0.0907200500369072 0.1390630304813385 0.016491468995809555
-0.039673008024692535 0.07047329843044281 0.041813015937805176
-0.018318625167012215 0.038292303681373596 -0.01670888066291809
-0.03360380604863167 0.035960737615823746 0.03333742544054985
-0.045322485268116 0.06646096706390381 0.03973112255334854
0.0340256467461586 0.036767181009054184 0.017054526135325432
-0.042428821325302124 0.15797285735607147 0.0045424350537359715
0.026016749441623688 0.10441634804010391 0.039255693554878235
0.012532372027635574 0.12295224517583847 -0.009652148000895977
0.011513080447912216 0.03476594388484955 0.04171346127986908
0.04894552007317543 0.07316166907548904 0.015955187380313873
-0.07481267303228378 0.09076931327581406 -0.01457649189978838
0.020346688106656075 0.11473212391138077 0.03617177903652191
-0.04895702004432678 0.033558979630470276 0.001805193373002112
0.01121863815933466 0.08847527205944061 0.054387807846069336
-0.005065882112830877 0.11985541880130768 -0.013349534943699837
-0.07133033126592636 0.15610545873641968 0.023869922384619713
0.009912616573274136 0.034164272248744965 -0.0006463985191658139
-0.05535493418574333 0.13407298922538757 0.03372228890657425
-0.08430106937885284 0.07768023014068604 0.012856541201472282
-0.08233849704265594 0.09713350236415863 -0.005800942424684763
0.004086753819137812 0.09886327385902405 0.049194980412721634
-0.08420475572347641 0.079258032143116 0.02106819674372673
-0.030196571722626686 0.0788356363773346 0.04201206937432289
-0.007020710036158562 0.038159530609846115 0.04887983202934265
0.01408196147531271 0.04313117638230324 -0.024014011025428772
0.04279341921210289 0.09041910618543625 -0.0053086550906300545
-0.010035133920609951 0.0997777059674263 0.04794374853372574
-0.027051428332924843 0.038401104509830475 -0.007236276287585497
0.001468975213356316 0.03869199380278587 -0.0019196547800675035
-0.034797437489032745 0.055678579956293106 -0.01062113605439663
0.030813999474048615 0.11883673816919327 0.006051201838999987
0.01954841986298561 0.09081192314624786 -0.02522488497197628
-0.02282884530723095 0.03867600858211517 -0.012895794585347176
-0.0904376357793808 0.12569071352481842 0.005326417740434408
0.03573039919137955 0.0691375732421875 0.03779822587966919
-0.026262037456035614 0.1739513874053955 -0.010655558668076992
-0.05993304401636124 0.1557687222957611 0.017949936911463737
0.05908617004752159 0.057108793407678604 0.01983989030122757
-0.09023293852806091 0.12926089763641357 0.0058754924684762955
-0.04740600287914276 0.05438709631562233 -0.010266320779919624
-0.08932165056467056 0.09500192105770111 0.018825894221663475
0.04016166552901268 0.06952328979969025 0.032060153782367706
-0.07957132905721664 0.15305554866790771 0.030399950221180916
-0.03568873554468155 0.03375904634594917 -0.030339036136865616
-0.08007156848907471 0.1086794063448906 0.03176824748516083
0.047900546342134476 0.04465769603848457 0.002185866003856063
-0.0024263656232506037 0.12805074453353882 -0.0038764525670558214
0.05456002056598663 0.0732337012887001 0.011455628089606762
-0.0643061026930809 0.0610450804233551 0.021006980910897255
-0.0659942626953125 0.16788935661315918 -0.030294308438897133
-0.07351101189851761 0.14710235595703125 -0.018150554969906807
0.02893809974193573 0.04949919879436493 0.036872100085020065
-0.0701579675078392 0.06209332495927811 0.01465096976608038
0.0008709515677765012 0.12588249146938324 0.03179842606186867
-0.0615902803838253 0.15317806601524353 0.0011064306600019336
-0.07383947819471359 0.15810157358646393 -0.029271109029650688
0.03293894976377487 0.035954829305410385 0.014576136134564877
-0.0007967926794663072 0.03687496483325958 0.018147246912121773
-0.03368879109621048 0.10902205109596252 -0.019120916724205017
-0.011761448346078396 0.1826069951057434 -0.028548890724778175
-0.006819366477429867 0.06581839919090271 -0.03537338972091675
0.0456220805644989 0.0871824249625206 0.004900151863694191
-0.03133916109800339 0.1568436175584793 -0.010823285207152367
-0.04168274626135826 0.06401099264621735 0.041212789714336395
0.011703253723680973 0.12697391211986542 0.028762267902493477
-0.0221982691437006 0.12002173811197281 0.03176174685359001
-0.021492986008524895 0.12348469346761703 -0.005457115359604359
-0.018790988251566887 0.17117641866207123 -0.015219218097627163
-0.06989621371030807 0.13707582652568817 -0.007956608198583126
0.016787869855761528 0.06643223762512207 -0.029280873015522957
-0.04210955277085304 0.10970623791217804 0.03803747147321701
-0.07748482376337051 0.11244086176156998 0.04699952155351639
0.019061405211687088 0.10475566983222961 -0.0186737310141325
0.025771193206310272 0.06484951078891754 0.04440930858254433
-0.06383998692035675 0.15561097860336304 0.00954866036772728
-0.059295233339071274 0.047253772616386414 -0.0001070520156645216
-0.0577339306473732 0.10182537883520126 -0.018956048414111137
-0.03823903948068619 0.05684783309698105 -0.01117844507098198
0.04600249603390694 0.08193884044885635 0.015823205932974815
-0.0006866822950541973 0.11819196492433548 -0.015476781874895096
-0.022400325164198875 0.10591458529233932 -0.022464528679847717
-0.08891873061656952 0.14144915342330933 0.012496965937316418
-0.04682580381631851 0.033532097935676575 -0.012322005815804005
-0.09192121773958206 0.1285574585199356 0.0308606568723917
-0.030459975823760033 0.038131628185510635 0.00369313289411366
-0.0712076798081398 0.09357502311468124 -0.01581093855202198
0.005149544682353735 0.12049104273319244 -0.01388145424425602
-0.06634217500686646 0.09077512472867966 -0.01780703477561474
0.04363704472780228 0.09530936926603317 0.0007661832496523857
-0.013757096603512764 0.11320805549621582 0.040312230587005615
0.003907090052962303 0.03806203231215477 0.025252774357795715
0.05836179107427597 0.06609535962343216 0.004101611208170652
-0.07450898736715317 0.17822666466236115 -0.0471561998128891
0.040995027869939804 0.10255841165781021 -0.00010843459313036874
-0.06330978870391846 0.04185612127184868 -0.005937681533396244
-0.003228992223739624 0.10491115599870682 0.044127851724624634
-0.03287924453616142 0.03462277352809906 0.02636011876165867
0.02608862891793251 0.0806380957365036 -0.02402694709599018
-0.02737829089164734 0.10997555404901505 0.038185663521289825
-0.0028685498982667923 0.12997771799564362 0.0011761932400986552
-0.05762520805001259 0.05042183771729469 0.0049181245267391205
-0.08774552494287491 0.08613238483667374 0.0042929137125611305
0.01718316413462162 0.06996311992406845 0.051487844437360764
0.03758080303668976 0.09113899618387222 0.03601718693971634
-0.02781607210636139 0.11205033957958221 -0.017511464655399323
0.027753444388508797 0.0962461307644844 -0.019372155889868736
-0.043184150010347366 0.09717554599046707 0.042482778429985046
0.005628594662994146 0.03410365805029869 0.00287379021756351
-0.0008206791244447231 0.0367824025452137 -0.015296955592930317
0.003877731040120125 0.13156074285507202 0.0168137364089489
-0.06227943301200867 0.16424722969532013 -0.052008334547281265
0.02653530426323414 0.11246773600578308 -0.010637900792062283
0.031383953988552094 0.07045620679855347 0.040984559804201126
-0.08559257537126541 0.09405062347650528 0.02819284424185753
-0.030761724337935448 0.08741507679224014 -0.028773443773388863
-0.010670878924429417 0.046700384467840195 -0.02960417978465557
-0.05740111693739891 0.1309148073196411 -0.006341851782053709
-0.08383007347583771 0.10009719431400299 -0.0036141423042863607
0.04306987673044205 0.07523456960916519 0.02757595293223858
-0.05950232595205307 0.15499041974544525 0.025103116407990456
0.042848750948905945 0.0863727331161499 0.027843978255987167
0.03700444847345352 0.10482234507799149 -0.00578352902084589
-0.03811422735452652 0.03960993513464928 -0.028633058071136475
-0.00496654724702239 0.03608602657914162 0.04832793027162552
-0.007926353253424168 0.039376161992549896 0.03706422820687294
-0.052137989550828934 0.15800738334655762 -0.003896433161571622
-0.03736549988389015 0.06846199929714203 -0.01571439765393734
0.019244732335209846 0.07201756536960602 0.05068768560886383
0.05030990019440651 0.04455225542187691 0.008548113517463207
-0.08938328176736832 0.1409900188446045 0.013396590016782284
-0.004144751001149416 0.04662419110536575 -0.029494835063815117
0.04475487396121025 0.06452427059412003 0.028028318658471107
-0.051019348204135895 0.052830424159765244 0.03221876919269562
0.020157117396593094 0.1114891767501831 0.03767920285463333
-0.052461910992860794 0.04675249010324478 -0.007572018075734377
-0.0849483460187912 0.10033257305622101 -0.00046201993245631456
-0.016652248799800873 0.18380281329154968 -0.025419941172003746
-0.03926322981715202 0.033846937119960785 -0.0172424353659153
0.005882466211915016 0.08743791282176971 -0.03327034413814545
-0.06762909889221191 0.1549879014492035 0.0013206652365624905
0.05228801816701889 0.045709796249866486 0.01328098401427269
0.0012487925123423338 0.10132438689470291 -0.02266649715602398
-0.04111107438802719 0.12880440056324005 0.01029329001903534
-0.05569812282919884 0.06584717333316803 -0.009823226369917393
-0.01238773949444294 0.07720809429883957 0.05721062049269676
0.04529254883527756 0.08981460332870483 0.015393021516501904
-0.048404134809970856 0.15762819349765778 -0.0067863743752241135
0.04596589133143425 0.08055222779512405 0.01866459846496582
-0.016459450125694275 0.11460770666599274 0.03859494999051094
-0.07253648340702057 0.16194002330303192 -0.03966301679611206
0.052904486656188965 0.054411184042692184 -0.002140405587852001
-0.0788172110915184 0.07992144674062729 -0.007688644342124462
-0.029801635071635246 0.05311184003949165 -0.01997814141213894
-0.07769911736249924 0.15526945888996124 0.02403179742395878
-0.06874951720237732 0.16356952488422394 -0.05271347612142563
-0.045987945050001144 0.10866750031709671 -0.018647072836756706
-0.023155901581048965 0.03859040141105652 0.03165660798549652
-0.006170767825096846 0.12807273864746094 0.027754420414566994
-0.03370166942477226 0.04641846567392349 -0.025424618273973465
-0.05179349333047867 0.09645981341600418 0.04380384832620621
0.05141701549291611 0.048927728086709976 0.0003486763162072748
-0.06233036890625954 0.10537543892860413 -0.017250703647732735
-0.06317537277936935 0.17818117141723633 -0.060462579131126404
-0.04948805645108223 0.07569589465856552 0.04308201000094414
-0.005839374382048845 0.034386951476335526 -0.017999932169914246
-0.012307265773415565 0.038945283740758896 -0.011698470450937748
-0.04225790500640869 0.06156610697507858 -0.012871230952441692
0.05888808146119118 0.06537286192178726 0.005180918611586094
0.024947337806224823 0.1014368012547493 -0.018637752160429955
-0.07799506932497025 0.15860958397388458 -0.019719215109944344
0.030219634994864464 0.06686890870332718 0.04175578057765961
0.03280211240053177 0.06149307265877724 0.03992387652397156
-0.07452388107776642 0.1135927364230156 -0.006417112424969673
0.014026124961674213 0.05579027161002159 0.05006593465805054
-0.07996814697980881 0.10714154690504074 0.031028157100081444
0.00845286063849926 0.03682867810130119 -0.023225726559758186
-0.0248704943805933 0.11478124558925629 0.03498581796884537
0.02192491665482521 0.11935140937566757 0.032657474279403687
-0.0461987629532814 0.03540010005235672 0.04394879564642906
-0.07873257994651794 0.08492028713226318 0.03608573228120804
0.007288503926247358 0.07525767385959625 0.05642359331250191
-0.026264050975441933 0.038661498576402664 -0.014868604950606823
-0.07289957255125046 0.10475492477416992 0.03743939846754074
0.050424203276634216 0.04443182051181793 0.009838844649493694
0.035997938364744186 0.0987057313323021 -0.01139871682971716
-0.07786323130130768 0.15542641282081604 0.01247450616210699
-0.05792476609349251 0.15812768042087555 0.0028981021605432034
-0.04291452467441559 0.17092905938625336 -0.0013313967501744628
-0.015308801084756851 0.04023250564932823 -0.027287112548947334
-0.06425952911376953 0.1055355817079544 0.0399077944457531
-0.08842825889587402 0.11221884191036224 0.038898684084415436
0.024365298449993134 0.11799748241901398 -0.007495403289794922
-0.0619719922542572 0.12646964192390442 -0.008329830132424831
-0.08065259456634521 0.10474495589733124 -0.005270666442811489
-0.09304873645305634 0.11664699763059616 0.020641198381781578
-0.0494881272315979 0.03464316949248314 0.042569600045681
-0.02194965071976185 0.16827046871185303 -0.01922239176928997
0.03159775584936142 0.09267081320285797 0.041966117918491364
-0.05258317291736603 0.06633400917053223 0.03622050583362579
-0.017268970608711243 0.10425515472888947 -0.022834360599517822
-0.07337624579668045 0.16814297437667847 -0.023689018562436104
-0.06416045129299164 0.1543835550546646 -0.03913827985525131
-0.06755489856004715 0.03416743129491806 0.011220578104257584
0.039406947791576385 0.04169051721692085 -0.0014627897180616856
0.00348491664044559 0.07773102074861526 -0.03486659377813339
0.0023235133849084377 0.08105152100324631 -0.034884341061115265
-0.06877586245536804 0.15635131299495697 0.018316904082894325
-0.012970990501344204 0.033981114625930786 -0.02434650994837284
-0.06645713001489639 0.03369356691837311 0.006145017687231302
-0.06473874300718307 0.15316464006900787 -0.001105115981772542
0.02780063822865486 0.11091611534357071 0.03516140952706337
-0.033281709998846054 0.063056580722332 -0.014770140871405602
-0.04107097536325455 0.09675875306129456 0.042107563465833664
