# .PCD v0.7 - Point Cloud Data file format
VERSION 0.7
FIELDS x y z
SIZE 4 4 4
TYPE F F F
COUNT 1 1 1
WIDTH 757
HEIGHT 1
VIEWPOINT 0 0 0 1 0 0 0
POINTS 757
DATA ascii
-0.043979495763778687 0.033606190234422684 -0.013180742040276527
-0.07223496586084366 0.0955556258559227 -0.015171023085713387
-0.010803964920341969 0.12832437455654144 0.0003077168657910079
-0.052822403609752655 0.1256246566772461 0.03559913486242294
-0.08690918982028961 0.15242122113704681 0.022608382627367973
0.010132995434105396 0.127739816904068 -0.0031120649073272943
-0.042062949389219284 0.05675164982676506 -0.011587299406528473
-0.001025154022499919 0.1313842087984085 0.012304763309657574
-0.014186644926667213 0.03767835348844528 0.051104526966810226
0.04355693235993385 0.06989004462957382 -0.0006324468995444477
0.037847135215997696 0.1009826809167862 0.030167080461978912
-0.03316200152039528 0.15323974192142487 -0.0006425519241020083
0.01848512329161167 0.11825349181890488 0.035072628408670425
-0.053495120257139206 0.13923488557338715 0.027871299535036087
-0.08471444249153137 0.15308120846748352 0.011188344098627567
-0.06236227974295616 0.09835651516914368 0.04261881113052368
-0.020724782720208168 0.03652326017618179 -0.018521878868341446
-0.08992767333984375 0.13569962978363037 0.011600255034863949
0.0025706712622195482 0.03406871482729912 -0.019381649792194366
-0.06457019597291946 0.15730072557926178 -0.04894425347447395
-0.016120074316859245 0.12849397957324982 0.017070209607481956
-0.012498357333242893 0.17552289366722107 -0.028040623292326927
0.00037241639802232385 0.0644105076789856 -0.03435549885034561
0.0016234834911301732 0.034237563610076904 -0.021999621763825417
0.006381446961313486 0.04748096317052841 0.04981715977191925
-0.08854661881923676 0.14286774396896362 0.03471020236611366
-0.013074240647256374 0.04430415481328964 0.05021131783723831
0.0005591182271018624 0.053352028131484985 -0.030570637434720993
-0.00503910006955266 0.11881124973297119 -0.014270448125898838
-0.0058553447015583515 0.09244398772716522 -0.035067129880189896
-0.007439768873155117 0.03487950935959816 0.04706765338778496
-0.009712962433695793 0.03936745971441269 -0.026116877794265747
-0.0928703173995018 0.125405952334404 0.0108031015843153
0.03010059893131256 0.04381061717867851 0.031014064326882362
0.042955052107572556 0.06196966394782066 -0.002792757237330079
-0.02895684912800789 0.05995243415236473 -0.024363497272133827
-0.06363531202077866 0.13427305221557617 0.03920464590191841
-0.0718131735920906 0.07226479798555374 0.03401178494095802
0.015236315317451954 0.061363447457551956 -0.02885313145816326
-0.07891716808080673 0.13903076946735382 0.04845251515507698
-0.004939463920891285 0.06283525377511978 0.05609716475009918
0.030484601855278015 0.10230831056833267 -0.014988268725574017
-0.04912697523832321 0.1186361163854599 0.03135218843817711
0.0021185213699936867 0.08988720178604126 0.055889155715703964
-0.003479761304333806 0.056261055171489716 0.05400664731860161
-0.04055025056004524 0.0957612618803978 -0.022584183141589165
-0.09169389307498932 0.11902392655611038 0.00769751938059926
-0.026112524792551994 0.07407939434051514 0.04542725160717964
-0.07012966275215149 0.1749824732542038 -0.05503801628947258
0.020663468167185783 0.03564042970538139 0.03137928992509842
-0.07738861441612244 0.16023175418376923 -0.025776073336601257
-0.09202317148447037 0.12687641382217407 0.03365827351808548
-0.07674507796764374 0.08969898521900177 0.03846839442849159
-0.06437619775533676 0.14456820487976074 -0.013186412863433361
-0.07312139123678207 0.064476378262043 0.011187798343598843
-0.0008008981239981949 0.11073221266269684 -0.020246295258402824
-0.04626986384391785 0.15040525794029236 -0.004818993154913187
-0.0758219063282013 0.1100054457783699 0.04372602328658104
0.05076785385608673 0.05449666455388069 -0.0038581418339163065
-0.03213338181376457 0.08569358289241791 0.04235655814409256
-0.08760642260313034 0.11067625880241394 0.017892450094223022
-0.06499719619750977 0.04097948595881462 0.029194150120019913
-0.07535038143396378 0.16330786049365997 -0.016313597559928894
0.01118037011474371 0.12307463586330414 -0.010011756792664528
-0.0018945573829114437 0.1000308021903038 -0.023778919130563736
0.01371300220489502 0.044604234397411346 0.04412337392568588
-0.020864469930529594 0.03816983476281166 0.022937271744012833
-0.08655014634132385 0.10316067934036255 0.005390194244682789
-0.03277691453695297 0.11517629772424698 -0.015629881992936134
0.031385116279125214 0.0771091878414154 -0.020162979140877724
-0.08212623000144958 0.1541857123374939 0.011729568243026733
0.0014152588555589318 0.08255398273468018 0.057352691888809204
-0.04293055459856987 0.033612221479415894 -0.018246212974190712
-0.0034066063817590475 0.09569703787565231 0.05431722477078438
-0.05852712690830231 0.11196944862604141 0.036362577229738235
-0.03660688176751137 0.06949114799499512 -0.016358772292733192
-0.016577711328864098 0.12858079373836517 0.012149185873568058
-0.0917658731341362 0.12518185377120972 0.042061418294906616
-0.04016181454062462 0.04586910456418991 -0.02069474384188652
-0.0673120841383934 0.07513393461704254 -0.015475663356482983
0.0503520630300045 0.04493360221385956 0.006718331482261419
-0.034393347799777985 0.17404228448867798 -0.013432341627776623
-0.013224897906184196 0.11936812102794647 -0.013288465328514576
-0.07409143447875977 0.1738256961107254 -0.038757093250751495
-0.03135751560330391 0.08066777884960175 0.04149611294269562
-0.07771939784288406 0.15814869105815887 -0.021203704178333282
0.028199169784784317 0.11998790502548218 0.00171139114536345
-0.0295681431889534 0.1792469322681427 -0.013614313676953316
-0.08477454632520676 0.07913150638341904 0.005057896953076124
-0.057503845542669296 0.08143206685781479 0.04412814974784851
-0.08385612815618515 0.07885010540485382 0.021339423954486847
-0.0663662925362587 0.11223004758358002 0.041130855679512024
-0.018253758549690247 0.11956831812858582 0.034530725330114365
0.030672982335090637 0.0355614572763443 0.016511520370841026
-0.04873192310333252 0.10694955289363861 0.039613332599401474
-0.0447186641395092 0.15939156711101532 0.006743901874870062
-0.06863291561603546 0.0689653605222702 0.03256138414144516
0.005225183442234993 0.03549465537071228 0.04523760825395584
0.02263430878520012 0.11939361691474915 0.03209127485752106
-0.06600282341241837 0.043491289019584656 0.010008984245359898
-0.07813729345798492 0.16019651293754578 -0.023041535168886185
-0.06002354249358177 0.06024877727031708 0.00018427915347274393
-0.008209381252527237 0.12090951949357986 -0.012620090506970882
-0.0535990409553051 0.10671024024486542 -0.0187905952334404
0.04383973777294159 0.09702545404434204 0.01630084402859211
-0.06341800093650818 0.08392239362001419 0.04426542669534683
0.03227289021015167 0.06457049399614334 -0.018204640597105026
-0.0809163972735405 0.13813051581382751 -0.00278658140450716
-0.017347566783428192 0.12782546877861023 0.01916821300983429
-0.05430249497294426 0.11600619554519653 0.03483578935265541
-0.0892212837934494 0.13860225677490234 0.028067786246538162
-0.04886724799871445 0.10205072909593582 0.041621141135692596
0.051217734813690186 0.045014847069978714 0.010629718191921711
0.05396240949630737 0.049628209322690964 0.0030161708127707243
0.006123295985162258 0.09724678099155426 0.05078405141830444
-0.08368556946516037 0.12024340033531189 0.04915974289178848
0.02186795324087143 0.034471362829208374 0.004565302282571793
-0.06291699409484863 0.10057605057954788 0.042223937809467316
-0.04100280627608299 0.07080348581075668 0.04189194366335869
-0.08874465525150299 0.1269313544034958 0.0028493714053183794
-0.05026966333389282 0.07952886819839478 0.04403599351644516
-0.029795220121741295 0.10950427502393723 0.03804487735033035
-0.08941543102264404 0.08958722651004791 0.016573701053857803
0.0025455374270677567 0.03920857235789299 -0.006271610036492348
-0.08441144973039627 0.08226002007722855 0.001955367624759674
0.027369897812604904 0.11880266666412354 -0.0029856571927666664
0.04488138109445572 0.08526317775249481 0.001358846784569323
-0.0010332545498386025 0.10573100298643112 0.0438467301428318
-0.07270144671201706 0.17837288975715637 -0.047873061150312424
0.058144450187683105 0.06782598048448563 0.004717514384537935
0.014582683332264423 0.03419794887304306 0.001493894844315946
-0.04189340025186539 0.1491057425737381 0.004124379251152277
0.005880087614059448 0.034823544323444366 0.04316994920372963
-0.011847993358969688 0.05408955737948418 -0.03362534940242767
-0.026608707383275032 0.11817534267902374 0.0314234159886837
0.014800659380853176 0.05673876777291298 0.04963390529155731
-0.040980491787195206 0.12715111672878265 0.017350245267152786
0.008568746037781239 0.12456941604614258 -0.008486404083669186
-0.012986144982278347 0.03679035231471062 -0.026086004450917244
-0.0021853225771337748 0.0498347245156765 0.05183100700378418
0.030575184151530266 0.1146908551454544 -0.005115764681249857
-0.08003723621368408 0.15477514266967773 0.02384963631629944
-0.02335369773209095 0.12191742658615112 -0.007715488318353891
0.04753421992063522 0.07348160445690155 0.01083624828606844
0.0343116819858551 0.03606439754366875 0.009062559343874454
-0.08981255441904068 0.11259427666664124 0.018954213708639145
-0.0209136214107275 0.038757599890232086 0.03311346098780632
-0.09147371351718903 0.12904535233974457 0.033296678215265274
-0.07510779052972794 0.09267015010118484 -0.01419016346335411
0.042544908821582794 0.10127552598714828 0.00502370297908783
0.03703451529145241 0.04504302516579628 -0.005033076275140047
0.00744267413392663 0.054973676800727844 0.05261659622192383
-0.07192857563495636 0.07492721825838089 -0.011737913824617863
0.02360733412206173 0.048149362206459045 0.039580367505550385
-0.03336672857403755 0.050557952374219894 0.038276154547929764
0.009603670798242092 0.08248990029096603 0.05504755675792694
-0.008999109268188477 0.1302926242351532 0.014953442849218845
-0.02645065262913704 0.03828128054738045 0.001170664676465094
-0.031124895438551903 0.03658473119139671 0.027612168341875076
-0.021287668496370316 0.1813785433769226 -0.021444955840706825
0.02595306932926178 0.03845257684588432 0.02899346873164177
-0.081007219851017 0.15302492678165436 0.005451268516480923
-0.027541041374206543 0.07206989824771881 0.04142298921942711
-0.011928318999707699 0.03883823752403259 -0.014273596927523613
-0.05648874118924141 0.14612451195716858 -0.0016734087839722633
0.014118057675659657 0.06282253563404083 0.051389291882514954
-0.07154980301856995 0.1557544618844986 -0.041975442320108414
-0.039424795657396317 0.04673193767666817 -0.018339067697525024
-0.04783717542886734 0.05456790328025818 0.03637390583753586
-0.0673023909330368 0.14347459375858307 -0.013232555240392685
-0.05036706477403641 0.11505219340324402 0.03391769900918007
-0.001578240655362606 0.1280156821012497 -0.003765768138691783
0.005157269071787596 0.09059472382068634 -0.03297632932662964
-0.05926286801695824 0.07461438328027725 0.04179168865084648
0.032536640763282776 0.0935865193605423 -0.016802167519927025
0.011825192719697952 0.034400686621665955 -0.016449248418211937
0.04343867301940918 0.08813342452049255 -0.004331073258072138
-0.06051721051335335 0.14706848561763763 -0.0028813283424824476
-0.0542931854724884 0.09184801578521729 -0.022129856050014496
-0.01960030198097229 0.16135273873806 -0.014248648658394814
-0.08842881768941879 0.1283276081085205 0.002519360976293683
0.01413965504616499 0.08727305382490158 -0.030154522508382797
-0.05395371466875076 0.12807047367095947 -0.005252351984381676
0.0021049808710813522 0.055498745292425156 0.05375349521636963
-0.0008694695425219834 0.12008680403232574 -0.013178395107388496
-0.07258982956409454 0.09081647545099258 -0.015550198964774609
0.03877255320549011 0.10899613797664642 0.009324459359049797
-0.08398669958114624 0.11098186671733856 0.002451360924169421
0.040036968886852264 0.0665198266506195 0.031983211636543274
-0.039479710161685944 0.12710000574588776 0.01736210659146309
-0.01387410331517458 0.16549015045166016 -0.01290098950266838
0.013073768466711044 0.06875571608543396 -0.031160440295934677
0.0424167662858963 0.10155961662530899 0.013695922680199146
0.03859031945466995 0.03893522918224335 0.01938677951693535
0.032897062599658966 0.05107852816581726 0.033708348870277405
-0.01994362473487854 0.11094873398542404 0.04015197604894638
0.004316255915910006 0.03893944248557091 -0.009212963283061981
-0.08448556065559387 0.1264028251171112 0.050158411264419556
-0.07155699282884598 0.14587712287902832 -0.021006960421800613
-0.02416469156742096 0.1646922081708908 -0.016612127423286438
-0.0541817881166935 0.15475721657276154 -0.0026487261056900024
-0.05974661931395531 0.1335170865058899 -0.006851590238511562
0.026679497212171555 0.11729495972394943 -0.005743182729929686
-0.05486184358596802 0.04868842661380768 0.03685877099633217
0.022305693477392197 0.0900271013379097 -0.024080701172351837
-0.08965323120355606 0.09109855443239212 0.017656592652201653
-0.03773994371294975 0.11286139488220215 0.03493824228644371
0.04434271156787872 0.08283361792564392 0.024808304384350777
-0.045487720519304276 0.03360830619931221 -0.014572725631296635
0.016537774354219437 0.043743930757045746 -0.023329580202698708
-0.05523268133401871 0.05541008710861206 0.009258078411221504
-0.08611305803060532 0.08102954179048538 0.008116981014609337
-0.058409836143255234 0.05944022536277771 0.020954305306077003
0.009377321228384972 0.034771546721458435 0.018876919522881508
-0.04060248285531998 0.03370759263634682 0.0007478800835087895
-0.03593819960951805 0.1268690526485443 0.01700299233198166
-0.01808192767202854 0.1209825798869133 -0.009508189745247364
-0.013770037330687046 0.12918208539485931 0.010364057496190071
0.0037660477682948112 0.0346747562289238 0.04024001955986023
0.037270959466695786 0.046515192836523056 -0.00572678679600358
0.029209714382886887 0.08538856357336044 0.043563615530729294
-0.06570768356323242 0.12720735371112823 0.04799938201904297
0.050784531980752945 0.07337930053472519 0.016672709956765175
0.05914567783474922 0.05578956753015518 0.009823834523558617
-0.025575829669833183 0.09384046494960785 -0.02869025059044361
0.01096840389072895 0.03526913374662399 0.04367916285991669
0.016178932040929794 0.08045019954442978 -0.029375208541750908
-0.033722635358572006 0.0438070222735405 0.046945858746767044
-0.05496649816632271 0.03456016629934311 0.04275625944137573
-0.06162305548787117 0.03973940387368202 0.023379424586892128
-0.006395852658897638 0.11726164072751999 -0.015526935458183289
-0.02915915474295616 0.1250699907541275 0.0032373452559113503
-0.054581865668296814 0.040755972266197205 -0.009961290284991264
0.03920373693108559 0.0812520757317543 0.034583501517772675
0.022464167326688766 0.0719311460852623 0.04879557713866234
0.021839564666152 0.03858994320034981 0.03909195587038994
-0.03724413365125656 0.07359130680561066 0.042029283940792084
-0.052561912685632706 0.03344732150435448 -0.00702108908444643
-0.0372186154127121 0.17544174194335938 -0.0055148969404399395
0.022069167345762253 0.06296507269144058 0.04699688032269478
0.012645302340388298 0.057193558663129807 -0.029479650780558586
-0.035819102078676224 0.03522060438990593 0.018979452550411224
-0.007914172485470772 0.10388395190238953 -0.023213138803839684
-0.010390190407633781 0.08808277547359467 0.0568692646920681
-0.0880267396569252 0.11348503828048706 0.03025885485112667
0.025286462157964706 0.0431559681892395 0.03792957589030266
-0.013542820699512959 0.08164719492197037 0.05729004740715027
-0.002365825232118368 0.09321249276399612 -0.03398166969418526
-0.016141332685947418 0.10991169512271881 0.04146939888596535
-0.06683468073606491 0.1706363707780838 -0.05784646421670914
-0.04986272379755974 0.1384410709142685 0.018690461292862892
-0.06061669811606407 0.033782489597797394 0.015935050323605537
-0.05733247846364975 0.03352891653776169 0.0047538792714476585
-0.03579431772232056 0.05650363117456436 0.039019688963890076
-0.051187947392463684 0.060211360454559326 -0.010109013877809048
0.05068575590848923 0.04467059299349785 0.015891695395112038
-0.0026567038148641586 0.041562121361494064 0.04741508513689041
-0.08687648922204971 0.10711909830570221 0.012591090053319931
0.03919262811541557 0.06270751357078552 0.0325191468000412
-0.036141250282526016 0.11905071139335632 0.030619267374277115
0.01909380778670311 0.035218242555856705 0.032995935529470444
-0.014395368285477161 0.08699525892734528 -0.038524869829416275
0.057698678225278854 0.07127820700407028 0.017395833507180214
0.01400243304669857 0.095494344830513 0.049443475902080536
-0.08791174739599228 0.10312364250421524 0.01926608569920063
-0.02699589543044567 0.17873148620128632 -0.0074134087190032005
0.04774346575140953 0.04699752852320671 -0.0012574088759720325
-0.09312445670366287 0.1200590431690216 0.03604879975318909
-0.05574936419725418 0.06784205883741379 -0.012446019798517227
-0.026905296370387077 0.12186995893716812 -0.007107117213308811
0.034025903791189194 0.10976868867874146 0.029215296730399132
-0.07364071905612946 0.06538858264684677 0.014473787508904934
0.03884517773985863 0.07573314756155014 -0.010628691874444485
-0.04846036806702614 0.03352570906281471 -0.008396711200475693
-0.09322300553321838 0.13043640553951263 0.020428840070962906
-0.0027536340057849884 0.08563985675573349 -0.036903053522109985
-0.06904140114784241 0.07262013107538223 0.03643476590514183
0.0009572550770826638 0.037483375519514084 -0.02473745308816433
0.007033387664705515 0.09594174474477768 0.05163811892271042
-0.0615806020796299 0.1558670848608017 0.02206677570939064
0.03244112432003021 0.08565469086170197 -0.019162820652127266
0.013874508440494537 0.07674882560968399 0.05440210551023483
-0.05170763283967972 0.05547281727194786 0.02133934013545513
-0.07263103127479553 0.14813190698623657 -0.029542164877057076
-0.019904185086488724 0.03520867973566055 0.05153343454003334
-0.08898650854825974 0.12208104133605957 0.04661305248737335
-0.05588975176215172 0.03432953357696533 0.030619388446211815
0.04464195296168327 0.0955294594168663 0.010699339210987091
0.0019911713898181915 0.037347350269556046 0.00010353710240451619
-0.01719723641872406 0.10060049593448639 -0.02396763488650322
-0.003444680944085121 0.04895918071269989 0.05062860623002052
-0.015143906697630882 0.038241058588027954 0.018385065719485283
-0.03366692364215851 0.058436136692762375 -0.01166553795337677
-0.029508057981729507 0.10660691559314728 -0.021375980228185654
-0.03205762431025505 0.1702665388584137 -0.01609504222869873
0.0447932593524456 0.07581891864538193 -1.1236215868848376e-05
-0.03536120057106018 0.12081550806760788 0.02883996069431305
-0.005387768615037203 0.059054311364889145 0.054828107357025146
-0.05538979917764664 0.16024664044380188 0.005244518164545298
-0.06092250347137451 0.0465131551027298 0.00016891499399207532
0.026979852467775345 0.06750230491161346 0.043555159121751785
0.0567827969789505 0.0574462004005909 0.02422855608165264
-0.011569926515221596 0.09972864389419556 -0.02450520545244217
-0.07308626174926758 0.15255753695964813 -0.03611981123685837
0.03628632798790932 0.0964239239692688 -0.011321687139570713
-0.030653437599539757 0.07385280728340149 -0.031638942658901215
-0.010936236940324306 0.06745466589927673 0.05483236536383629
-0.07248101383447647 0.03558093309402466 0.0027169438544660807
-0.044191502034664154 0.10201382637023926 -0.021392373368144035
-0.07469813525676727 0.07917337119579315 -0.011532130651175976
-0.06685294955968857 0.12235786020755768 0.05151984468102455
-0.04674031212925911 0.10201874375343323 0.041764263063669205
-0.029646893963217735 0.035180892795324326 0.05075288191437721
0.011544734239578247 0.12003067135810852 -0.013574682176113129
-0.05033870041370392 0.04869688302278519 0.016684362664818764
-0.06805326789617538 0.11149454116821289 0.04215386137366295
0.046969786286354065 0.04347148537635803 0.02110251970589161
0.04134836047887802 0.05480964109301567 -0.0064524388872087
-0.029850918799638748 0.16388271749019623 -0.015554025769233704
0.028315341100096703 0.06630191951990128 -0.020649529993534088
-0.026192735880613327 0.09247900545597076 0.045990657061338425
-0.044575128704309464 0.033697228878736496 -0.0031015516724437475
-0.024853017181158066 0.092191182076931 0.048373620957136154
-0.05058371275663376 0.0899055004119873 0.044874124228954315
-0.01476403046399355 0.04211755469441414 -0.027055956423282623
-0.026916710659861565 0.05216806381940842 0.039075370877981186
0.0012486918130889535 0.08636445552110672 0.05716441571712494
-0.05168258026242256 0.07058456540107727 -0.01512862741947174
-0.06554825603961945 0.08272267878055573 -0.01862952671945095
-0.0676015168428421 0.08956301212310791 0.04353410750627518
-0.07509656250476837 0.12484747916460037 -0.007957080379128456
-0.026342209428548813 0.07387760281562805 -0.036304622888565063
0.033276379108428955 0.08903327584266663 0.04183053597807884
-0.027118289843201637 0.03756501525640488 0.01673867553472519
0.017495566979050636 0.09402791410684586 0.048007044941186905
-0.019177565351128578 0.09026039391756058 -0.03670886531472206
0.006257645320147276 0.09931570291519165 -0.02272064983844757
-0.05384242162108421 0.04424753785133362 0.02056284435093403
-0.07865343242883682 0.13049836456775665 0.05295755714178085
-0.04888283833861351 0.08150365948677063 0.044091783463954926
-0.043769702315330505 0.1268690526485443 0.01917313039302826
0.040566522628068924 0.038835834711790085 0.010449877940118313
-0.025616822764277458 0.05013861134648323 0.04571770504117012
0.01872274838387966 0.09654910862445831 -0.022976519539952278
0.031070955097675323 0.06943727284669876 0.04116818308830261
-0.05912702903151512 0.1322455257177353 0.037736911326646805
-0.023750856518745422 0.058583591133356094 -0.03156587854027748
0.02913600765168667 0.12080389261245728 0.012333572842180729
-0.04600590839982033 0.07168232649564743 0.04165031388401985
-0.06062762439250946 0.041448868811130524 0.01646283268928528
-0.048063937574625015 0.08549308776855469 -0.02177130989730358
-0.02473055198788643 0.05188912898302078 0.04182099923491478
-0.08749719709157944 0.10022707283496857 0.005743016023188829
-0.026368744671344757 0.034947220236063004 0.04993079602718353
0.022661879658699036 0.06368742883205414 -0.025617077946662903
0.045069314539432526 0.0915944054722786 0.015462037175893784
0.01732117310166359 0.08942148089408875 -0.02718496508896351
-0.062378451228141785 0.16361093521118164 -0.05220065265893936
0.0032731969840824604 0.06131759658455849 -0.032602064311504364
0.03583730384707451 0.07290294766426086 -0.013948368839919567
-0.06846628338098526 0.06868113577365875 -0.006669106427580118
0.026804590597748756 0.12151072919368744 0.023274987936019897
0.007398866582661867 0.09199166297912598 0.0537000447511673
0.005327148362994194 0.06031933054327965 0.05539001151919365
-0.042602699249982834 0.033744700253009796 -0.00020135835802648216
-0.07400345057249069 0.17117555439472198 -0.03201068937778473
-0.05524388328194618 0.13903625309467316 -0.0028759785927832127
-0.06450600177049637 0.034835103899240494 0.037858691066503525
-0.07024086266756058 0.1711806058883667 -0.05245162546634674
0.005203218664973974 0.0342080257833004 -0.016790395602583885
0.010066413320600986 0.04025593772530556 0.04513068124651909
-0.06393691152334213 0.12416694313287735 0.04706458002328873
0.029653185978531837 0.10691290348768234 0.03618782013654709
-0.043813176453113556 0.035574737936258316 0.043650440871715546
0.029602525755763054 0.04495026916265488 0.032829008996486664
-0.011015307158231735 0.06385388225317001 0.055296849459409714
0.011825457215309143 0.046828899532556534 0.04567359387874603
0.03513545170426369 0.10594362765550613 -0.008534247055649757
-0.06592085212469101 0.1562618464231491 -0.006866599433124065
0.005052352324128151 0.038199178874492645 0.026351019740104675
-0.06339304149150848 0.15479972958564758 -0.037037331610918045
-0.06676024943590164 0.03735549375414848 0.030820969492197037
-0.003899885108694434 0.0975760817527771 0.05262257158756256
0.04767812415957451 0.060764893889427185 0.03090216964483261
-0.047616224735975266 0.10358987003564835 0.041002266108989716
-0.06149393320083618 0.03426847979426384 0.029793165624141693
-0.06043322756886482 0.07365933805704117 0.04085236415266991
-0.08811463415622711 0.13801229000091553 0.04071687534451485
-0.04768058657646179 0.13481776416301727 0.009277867153286934
-0.06001127138733864 0.03452096879482269 0.04130653664469719
-0.08658775687217712 0.12117070704698563 0.04843057692050934
-0.08940194547176361 0.09907343238592148 0.017472919076681137
-0.04812612757086754 0.16533531248569489 0.003766861045733094
0.014038732275366783 0.08080506324768066 -0.03041543811559677
0.006906749214977026 0.04136691987514496 -0.023778438568115234
0.05222052335739136 0.0644373819231987 -0.0013375093694776297
0.03518500551581383 0.08830965310335159 0.039693303406238556
-0.020302653312683105 0.1829608678817749 -0.01446867361664772
-0.055388979613780975 0.06450243294239044 0.03327183425426483
-0.051602642983198166 0.08848758041858673 -0.021843774244189262
-0.030121978372335434 0.08826260268688202 -0.02954140678048134
-0.06420538574457169 0.03491118177771568 0.03925996646285057
0.06100775673985481 0.06236230581998825 0.011320400051772594
-0.027958398684859276 0.12553508579730988 0.01494472287595272
0.0418393611907959 0.0937863141298294 0.02743034064769745
-0.06429391354322433 0.15027056634426117 -0.030720937997102737
0.05733135715126991 0.07064260542392731 0.019594060257077217
-0.06302516162395477 0.1604422926902771 -0.04691006988286972
-0.07921649515628815 0.08591233193874359 -0.009946390986442566
0.038896773010492325 0.048531897366046906 -0.006197080016136169
0.008841682225465775 0.07044652104377747 0.055451858788728714
-0.07005125284194946 0.041981156915426254 0.0060461293905973434
0.0325607992708683 0.08768775314092636 -0.01904406026005745
-0.05389610305428505 0.09626444429159164 0.043536752462387085
0.04190996661782265 0.10038109123706818 -2.959801713586785e-05
-0.048358671367168427 0.1138501986861229 -0.01628411002457142
-0.08956152945756912 0.09015203267335892 0.01305784098803997
-0.05332031100988388 0.12255410104990005 -0.009345700033009052
-0.058980464935302734 0.0789967030286789 -0.019458472728729248
-0.012536248192191124 0.038402099162340164 0.007957814261317253
-0.05554899200797081 0.1488121598958969 0.02878740429878235
0.0011728599201887846 0.03561485558748245 0.019397534430027008
0.059545714408159256 0.06406343728303909 0.006232193671166897
0.0006390116177499294 0.0720672532916069 0.05709017440676689
0.026639241725206375 0.08924264460802078 0.04584210738539696
-0.07593970745801926 0.15537621080875397 -0.0032187518663704395
0.014474913477897644 0.05961127579212189 0.05006764456629753
-0.02336416207253933 0.09258776158094406 0.04972478747367859
-0.0663827434182167 0.14154304563999176 -0.008664574474096298
-0.01502208225429058 0.04226485267281532 0.05143618956208229
-0.025486741214990616 0.1809133142232895 -0.008778887800872326
-0.03449947386980057 0.10254690796136856 0.041156359016895294
-0.06559103727340698 0.06334435194730759 -0.003545582527294755
0.014944643713533878 0.12389666587114334 0.030975354835391045
-0.0727747455239296 0.10860873013734818 0.03803239017724991
0.045790087431669235 0.08893399685621262 0.00728198466822505
-0.08401075005531311 0.0822659432888031 0.0005056023364886642
-0.061181653290987015 0.1695134937763214 -0.057519685477018356
-0.03817565366625786 0.05528043955564499 0.039496250450611115
0.012756704352796078 0.03471557796001434 0.02577121928334236
0.01456452440470457 0.1292545348405838 0.019159823656082153
0.024480393156409264 0.11978888511657715 -0.004943962208926678
0.006439036689698696 0.037245407700538635 0.045578569173812866
-0.011576462537050247 0.04450817406177521 -0.027470286935567856
-0.04699496179819107 0.16778412461280823 -0.004841046407818794
-0.06845737993717194 0.07710984349250793 0.03942064568400383
0.017312655225396156 0.09311894327402115 -0.02476007118821144
0.0352342426776886 0.0993909239768982 0.034941233694553375
-0.04310949519276619 0.15356235206127167 0.007181727793067694
-0.06905665993690491 0.11075612902641296 0.04120946303009987
-0.051250383257865906 0.1157522052526474 -0.015519974753260612
-0.05446512624621391 0.14827854931354523 -0.0019837799482047558
-0.010585376992821693 0.056537359952926636 -0.03396062180399895
-0.0006046518683433533 0.047963354736566544 0.04999081790447235
-0.06798630207777023 0.1651620715856552 -0.019485794007778168
-0.018426550552248955 0.07075437158346176 0.05394862964749336
0.047935862094163895 0.05513104051351547 0.03141893818974495
-0.02925245836377144 0.09587587416172028 0.04498457908630371
-0.09029249846935272 0.13632290065288544 0.021870508790016174
-0.009190253913402557 0.03448305279016495 -0.018256930634379387
0.027056913822889328 0.04756388068199158 0.03758327662944794
-0.059300005435943604 0.11055674403905869 0.03721383213996887
-0.01657182164490223 0.06290622055530548 -0.036334965378046036
-0.05049086734652519 0.05330488085746765 0.018550461158156395
-0.04731753468513489 0.08393718302249908 -0.021498147398233414
-0.07467923313379288 0.09565920382738113 -0.013931706547737122
-0.020724110305309296 0.09628990292549133 -0.027101512998342514
-0.07200225442647934 0.13814957439899445 0.04832093417644501
-0.0026962796691805124 0.04203684628009796 -0.025267384946346283
-0.08324003964662552 0.09164255857467651 -0.006148448679596186
-0.04999585449695587 0.09667529165744781 -0.022178618237376213
-0.02821211889386177 0.03829393908381462 -5.70605589018669e-05
-0.04825671762228012 0.14427903294563293 0.004826000891625881
-0.06975530833005905 0.11720909923315048 0.05243183672428131
-0.006262469105422497 0.051350805908441544 0.05208083242177963
-0.029102923348546028 0.03828098997473717 0.0015000728890299797
-0.0026653094682842493 0.11859184503555298 -0.01445686910301447
-0.07569083571434021 0.126930370926857 -0.00800271239131689
-0.05807844176888466 0.15276218950748444 0.03176470100879669
-0.03402433171868324 0.1271284520626068 0.008039455860853195
-0.038396868854761124 0.16048818826675415 0.0012798105599358678
0.0336868092417717 0.09297492355108261 -0.016223421320319176
0.0458686463534832 0.08780451864004135 0.009558994323015213
0.01813352294266224 0.12592636048793793 -0.0004849137330893427
-0.08395332843065262 0.1156594529747963 0.04791859909892082
-0.05136167258024216 0.0344744436442852 0.009725661017000675
-0.06243864819407463 0.16290438175201416 -0.057455625385046005
0.036687564104795456 0.08692286163568497 0.03737678378820419
-0.04059245064854622 0.0493929497897625 0.03957337886095047
-0.011245595291256905 0.10121510922908783 0.044345151633024216
-0.09106310456991196 0.12505511939525604 0.04358295351266861
-0.06281497329473495 0.16184380650520325 -0.0562438890337944
-0.0009648507693782449 0.039104580879211426 -0.00557789858430624
-0.028915295377373695 0.03860383853316307 -0.012053588405251503
-0.006596183869987726 0.03869029879570007 0.0011661471799015999
0.04176481440663338 0.07786394655704498 0.02986985072493553
0.0050387904047966 0.08440577983856201 -0.03373563662171364
-0.036996740847826004 0.08740203827619553 0.0434098020195961
-0.010524687357246876 0.03813425824046135 -0.015730252489447594
-0.0859929621219635 0.15248079597949982 0.0114818150177598
0.043864112347364426 0.05894944444298744 -0.004778739530593157
0.03610394522547722 0.03725634515285492 0.015970872715115547
-0.08230523020029068 0.07992962002754211 -0.0014642552705481648
-0.0561288446187973 0.05844729393720627 -0.003070436418056488
-0.06585439294576645 0.03577569127082825 0.03815620765089989
-0.08175978064537048 0.07374256104230881 0.011614738032221794
-0.006150824949145317 0.10818798094987869 -0.022619131952524185
0.0521029457449913 0.05044526606798172 -0.00035403756191954017
0.03726638853549957 0.05466572940349579 0.03154534846544266
-0.03758114576339722 0.033617667853832245 -0.028107356280088425
-0.0790003314614296 0.0769137591123581 0.029829751700162888
-0.04534415528178215 0.05739539861679077 -0.011677054688334465
-0.011776595376431942 0.04955779016017914 0.049724578857421875
-0.03555211424827576 0.15962271392345428 0.002267006319016218
0.06090531870722771 0.06403754651546478 0.013648939318954945
-0.030355598777532578 0.03850650042295456 -0.016303623095154762
-0.007093115244060755 0.07020750641822815 -0.03625233471393585
0.021736152470111847 0.09688796103000641 0.04666256532073021
-0.042720727622509 0.08997152745723724 -0.02243535965681076
0.03865882009267807 0.10510732978582382 0.025991814211010933
0.002850362565368414 0.12237828969955444 0.034948043525218964
0.027089226990938187 0.04667641222476959 -0.013401651754975319
0.012209931388497353 0.034435298293828964 -0.018262306228280067
-0.09355758875608444 0.12490009516477585 0.026292918249964714
-0.03478887304663658 0.05355807766318321 -0.010267226956784725
-0.04322563484311104 0.07039865851402283 0.04201067239046097
-0.08015251159667969 0.07104340940713882 0.011155062355101109
-0.004712782800197601 0.03469669446349144 0.04523533955216408
-0.02460598200559616 0.034894365817308426 -0.028521040454506874
0.01583261229097843 0.12905697524547577 0.01114974170923233
0.04113798588514328 0.04060358926653862 0.0020085261203348637
-0.008145331405103207 0.12851078808307648 0.026129940524697304
-0.07803555577993393 0.15924425423145294 -0.020342204719781876
-0.01123714167624712 0.12957479059696198 0.018936695531010628
-0.05718448758125305 0.11902819573879242 0.038988616317510605
-0.04359452798962593 0.03574468940496445 -0.026003334671258926
-0.057833969593048096 0.041943661868572235 0.04565221816301346
0.02297932840883732 0.1050572395324707 0.040622591972351074
0.009372228756546974 0.09726488590240479 -0.02463505044579506
0.04164135083556175 0.0966004952788353 0.02621280960738659
-0.032011568546295166 0.07703862339258194 -0.031025631353259087
-0.03789430111646652 0.1257878988981247 -0.005129921715706587
0.03659014776349068 0.07615933567285538 0.03776993975043297
-0.017743047326803207 0.038763709366321564 0.03271397203207016
-0.09100380539894104 0.13138875365257263 0.030294131487607956
-0.058007463812828064 0.05803703889250755 0.017018429934978485
-0.04735645279288292 0.1661960929632187 -0.005619814153760672
-0.06338571012020111 0.15240025520324707 -0.007334023714065552
-0.0635843500494957 0.14843763411045074 -0.02178807370364666
0.02800797112286091 0.03530971705913544 0.018322356045246124
-0.08578113466501236 0.09510526061058044 0.027958815917372704
-0.04057372361421585 0.033581025898456573 0.0035551569890230894
0.028074543923139572 0.11761977523565292 -0.004042658489197493
-0.05472574383020401 0.0388067401945591 -0.010745859704911709
-0.036229487508535385 0.10056574642658234 0.04192813113331795
0.004142432473599911 0.03437861055135727 0.01886817067861557
-0.023698516190052032 0.0426323227584362 0.05385050177574158
-0.030715886503458023 0.03859272971749306 -0.012072587385773659
0.05540945753455162 0.073053278028965 0.013381347991526127
-0.05334325134754181 0.08348105847835541 -0.021566642448306084
-0.07704479992389679 0.14509016275405884 0.043893780559301376
0.019558977335691452 0.03515836223959923 0.030026128515601158
-0.012061705812811852 0.18352791666984558 -0.026766614988446236
-0.02657952718436718 0.03830082714557648 0.030089301988482475
-0.0692530944943428 0.0666918233036995 0.027779411524534225
0.028636187314987183 0.046747446060180664 0.03592193126678467
-0.020003540441393852 0.059220168739557266 -0.03416593000292778
-0.02788359485566616 0.05580085515975952 -0.024860942736268044
-0.06192454695701599 0.036938756704330444 0.019555777311325073
-0.020822135731577873 0.048555225133895874 0.0491330623626709
-0.008267360739409924 0.05652705952525139 0.053540535271167755
-0.07291722297668457 0.14818468689918518 -0.027501661330461502
-0.012943399138748646 0.09719817340373993 -0.02970612794160843
-0.06480513513088226 0.034642983227968216 0.034731846302747726
-0.06843284517526627 0.06531238555908203 -0.0030478208791464567
0.0019423944177106023 0.0585232675075531 -0.03253999724984169
-0.01908419281244278 0.03860040381550789 -0.006295959930866957
-0.0750618651509285 0.10527252405881882 0.036387547850608826
-0.026368994265794754 0.10948524624109268 0.03897830843925476
-0.07347040623426437 0.08805342018604279 -0.015484845265746117
-0.02671372890472412 0.04764372855424881 0.04950858652591705
-0.00813309196382761 0.111245296895504 -0.02100730687379837
-0.08613686263561249 0.0944211483001709 0.0008742731297388673
-0.04864559322595596 0.1226092129945755 0.030138511210680008
0.030114108696579933 0.07444390654563904 -0.021285563707351685
-0.05286630243062973 0.1580125093460083 0.009306001476943493
-0.045708298683166504 0.07553013414144516 -0.017822815105319023
-0.0017104421276599169 0.07343205064535141 0.058393530547618866
-0.05891995504498482 0.058039166033267975 0.015366997569799423
-0.0608736090362072 0.08544658869504929 -0.01973832957446575
-0.08617717027664185 0.08343411237001419 0.019454870373010635
-0.028402337804436684 0.0922100692987442 -0.02732868120074272
-0.03658082336187363 0.15081192553043365 -0.0010032179998233914
-0.0370279997587204 0.07607625424861908 0.042102452367544174
0.033132389187812805 0.054958321154117584 0.03640807792544365
-0.010259132832288742 0.09057721495628357 0.05660741776227951
0.04564707726240158 0.07829561084508896 0.02140134386718273
-0.04782586544752121 0.15929275751113892 0.008205088786780834
-0.07298468798398972 0.14083445072174072 -0.007204030640423298
-0.08670888096094131 0.11206521093845367 0.005354847759008408
-0.035746678709983826 0.11470653861761093 -0.01621205545961857
-0.07780719548463821 0.16962440311908722 -0.0341031476855278
-0.05436968058347702 0.05634104087948799 0.011441165581345558
-0.012680086307227612 0.03838391229510307 0.006525425706058741
-0.012165174819529057 0.11420224606990814 -0.017327070236206055
-0.0049729845486581326 0.1309291571378708 0.010885077528655529
-0.033982228487730026 0.08558838069438934 0.042524032294750214
-0.031199337914586067 0.12625625729560852 0.011634988710284233
0.002501470036804676 0.0842834860086441 -0.034604690968990326
-0.018004488199949265 0.11387404054403305 0.03879599645733833
-0.03573284298181534 0.10768241435289383 -0.02012164331972599
-0.038900990039110184 0.06504218280315399 0.04166083782911301
-0.06507942080497742 0.17011906206607819 -0.04223540797829628
-0.029304755851626396 0.04507068544626236 -0.028035303577780724
0.0028283288702368736 0.09888124465942383 -0.02417059987783432
-0.08162613958120346 0.07932695001363754 0.029264511540532112
-0.028830675408244133 0.03821612894535065 0.0029325128998607397
-0.06525180488824844 0.06607719510793686 -0.006480525713413954
-0.016053108498454094 0.058766622096300125 0.051605094224214554
-0.0496414378285408 0.034196145832538605 0.02830144576728344
-0.02200957201421261 0.12016747891902924 0.03169413283467293
-0.05958636477589607 0.09280731528997421 0.04523148760199547
-0.04751831293106079 0.05670242756605148 0.03663817048072815
-0.027206772938370705 0.06981883943080902 -0.033908355981111526
-0.06374902278184891 0.12955324351787567 0.04281998053193092
-0.03197887912392616 0.060431815683841705 -0.01601501926779747
-0.03259854391217232 0.10556282103061676 0.04004828631877899
-0.041974987834692 0.033796507865190506 -0.011758795008063316
0.06034845858812332 0.06484925746917725 0.009119302965700626
0.0010341641027480364 0.03436513990163803 -0.017136838287115097
-0.05358373746275902 0.11751028150320053 -0.01405512448400259
-0.07048195600509644 0.07656191289424896 -0.014259438030421734
-0.060570623725652695 0.14144134521484375 0.03559455648064613
-0.04685448855161667 0.11577259004116058 -0.01565675437450409
-0.04127822443842888 0.171162411570549 -0.0003359916736371815
0.021097902208566666 0.09157659113407135 0.04802774265408516
-0.08957254141569138 0.09743659198284149 0.016444643959403038
0.0017538521206006408 0.06668364256620407 0.05624096840620041
-0.045817144215106964 0.15180480480194092 -0.005696199834346771
-0.01758101023733616 0.11833265423774719 0.03559083864092827
-0.09181942045688629 0.13320349156856537 0.018304763361811638
-0.0710013136267662 0.1606311798095703 -0.044463105499744415
-0.0066614532843232155 0.07225524634122849 0.05801450088620186
0.04263101890683174 0.06819280982017517 -0.002428426407277584
-0.005437407176941633 0.038584884256124496 0.006630183197557926
-0.0152139225974679 0.03839482367038727 0.006019050255417824
0.0026697528082877398 0.10091375559568405 0.04547327011823654
-0.09017527848482132 0.12655581533908844 0.005067071877419949
-0.006627713330090046 0.04590573534369469 0.04735122621059418
-0.013303815387189388 0.09786040335893631 -0.027815762907266617
-0.039613835513591766 0.049234721809625626 -0.011502798646688461
-0.04941171407699585 0.03930181637406349 0.04556496441364288
-0.01413094624876976 0.035923756659030914 -0.01785806007683277
0.021993525326251984 0.12450068444013596 0.0013207184383645654
0.029571816325187683 0.10927428305149078 -0.011327521875500679
0.007363267708569765 0.08567801117897034 0.05631067976355553
0.03210565075278282 0.05506707727909088 -0.013298507779836655
-0.04412613809108734 0.10385266691446304 -0.021036885678768158
0.014220191165804863 0.1158832535147667 -0.015444985590875149
0.04244294762611389 0.0531998835504055 0.0325387679040432
-0.03314673900604248 0.03471047803759575 0.042957257479429245
0.03875524550676346 0.0802638977766037 -0.012504269368946552
-0.03544486686587334 0.11038391292095184 -0.018876008689403534
-0.08838751912117004 0.09558083862066269 0.02332945168018341
0.03352861478924751 0.11348684877157211 -0.0016672842903062701
0.02714810147881508 0.12083718180656433 0.02459903247654438
0.0067759002558887005 0.10805515199899673 0.041325584053993225
-0.009211460128426552 0.115158811211586 -0.01673712208867073
-0.06176096573472023 0.1607944220304489 -0.030525481328368187
-0.07886787503957748 0.1426595151424408 0.04554752632975578
-0.010169269517064095 0.0604049488902092 0.05516684427857399
-0.06690627336502075 0.13065123558044434 0.04661806672811508
0.01186563540250063 0.06500212848186493 0.053102899342775345
-0.0685017853975296 0.1736370325088501 -0.04330560937523842
0.004289328120648861 0.044910021126270294 0.0469626747071743
-0.001553823472931981 0.13109035789966583 0.006961962208151817
0.010585036128759384 0.12999099493026733 0.002670039189979434
-0.0543111115694046 0.03342030569911003 0.015606326051056385
-0.014620086178183556 0.09977070242166519 0.0447937548160553
0.01816192828118801 0.12604619562625885 0.024532387033104897
0.01667686551809311 0.12857861816883087 0.016567151993513107
-0.04806803539395332 0.12988193333148956 0.02754940465092659
-0.06890048831701279 0.11344431340694427 0.04843185842037201
-0.06399966031312943 0.033445365726947784 -0.0036815176717936993
-0.06063666567206383 0.14490444958209991 0.03676871582865715
-0.062388643622398376 0.09120512753725052 -0.01898375153541565
-0.049898553639650345 0.1467025876045227 -0.0019631676841527224
-0.08479131758213043 0.14960232377052307 0.03238559514284134
-0.07426710426807404 0.16247200965881348 -0.013448632322251797
-0.051991600543260574 0.054639555513858795 0.024161826819181442
-0.07133487612009048 0.15618231892585754 0.013015716336667538
-0.008025500923395157 0.03844918683171272 0.01629612222313881
0.02932085283100605 0.048232924193143845 0.03604483976960182
-0.03139489144086838 0.12611015141010284 0.014574169181287289
-0.06741070002317429 0.11372140794992447 -0.010542920790612698
0.025898106396198273 0.03474853187799454 0.016313590109348297
-0.06654724478721619 0.062370602041482925 0.022325336933135986
-0.01630844734609127 0.12738804519176483 0.021963786333799362
-0.02335340529680252 0.15689527988433838 -0.005837403703480959
0.03751063346862793 0.10999676585197449 0.019870715215802193
-0.07492875307798386 0.06656084954738617 0.013067484833300114
0.02473202720284462 0.07939513772726059 -0.024950047954916954
-0.031045900657773018 0.17157556116580963 -0.005577614530920982
0.022106554359197617 0.05635678395628929 -0.02630522847175598
0.035563137382268906 0.10388552397489548 0.031343989074230194
-0.05791228264570236 0.03821412846446037 -0.00968164298683405
-0.032332997769117355 0.04364520683884621 0.049124348908662796
-0.04279499873518944 0.08628872036933899 -0.021530909463763237
-0.04072366654872894 0.034255024045705795 0.02894294261932373
-0.07466550171375275 0.17222099006175995 -0.04758717864751816
-0.02658979408442974 0.08777839690446854 0.04925913363695145
-0.015200300142168999 0.1256694346666336 -0.003223722567781806
-0.08017130941152573 0.08699191361665726 0.0347021259367466
-0.0927261933684349 0.12474043667316437 0.03832944855093956
-0.018041297793388367 0.10307691991329193 -0.023294053971767426
-0.0069009773433208466 0.03852560371160507 0.023573454469442368
-0.061769999563694 0.173030287027359 -0.05625494569540024
-0.03686249256134033 0.06292744725942612 -0.013414870016276836
-0.0015544439665973186 0.12094539403915405 -0.012123777531087399
-0.05808733403682709 0.0476507693529129 0.008794251829385757
-0.027635470032691956 0.06039890646934509 0.03745054826140404
-3.86826877729618e-06 0.13135573267936707 0.017107170075178146
-0.08165021985769272 0.1547517627477646 0.019403111189603806
-0.014148101210594177 0.18063583970069885 -0.02202504687011242
-0.08847720175981522 0.08729995042085648 0.01699906215071678
-0.06247517466545105 0.11542826890945435 0.03972867131233215
-0.04724784195423126 0.06767266243696213 0.039333269000053406
-0.06491566449403763 0.1690422147512436 -0.03960517793893814
0.013049231842160225 0.04043123871088028 -0.02293913997709751
-0.01860537938773632 0.0796424075961113 -0.03891386836767197
-0.0831696093082428 0.13697026669979095 0.04741276428103447
0.021410895511507988 0.10288845747709274 0.04357689246535301
-0.01792806386947632 0.06743776053190231 -0.03801310062408447
-0.01603946089744568 0.10526129603385925 0.0426642931997776
-0.053250424563884735 0.07642106711864471 -0.01891336962580681
-0.004216054454445839 0.03896717727184296 -0.013454136438667774
0.04444226250052452 0.08806005120277405 0.023288019001483917
-0.08040051907300949 0.12189549952745438 -0.005246045999228954
-0.017017660662531853 0.03513387218117714 0.05044121295213699
-0.026866449043154716 0.1563737541437149 -0.002368506509810686
-0.02229985035955906 0.1211567223072052 -0.00932177621871233
-0.06699119508266449 0.12942883372306824 0.04769907146692276
0.0016907475655898452 0.03735605254769325 -0.014470577239990234
-0.021314101293683052 0.1159498542547226 0.03625905513763428
-0.06287464499473572 0.15328414738178253 0.03327818214893341
-0.08473428338766098 0.09645341336727142 0.029209014028310776
-0.031728677451610565 0.06414169073104858 -0.019937695935368538
-0.04080219939351082 0.1174873486161232 -0.01429813727736473
-0.050919875502586365 0.03343775495886803 -0.008852096274495125
-0.04774037376046181 0.1256280094385147 0.028883570805191994
-0.009645418263971806 0.03383709117770195 -0.022064736112952232
-0.06094006076455116 0.04643459990620613 0.008702277205884457
0.010293721221387386 0.03472072631120682 0.042059142142534256
-0.0630781352519989 0.1609494686126709 -0.0514167882502079
-0.031349677592515945 0.07257310301065445 -0.028834376484155655
-0.07171060144901276 0.16727934777736664 -0.021204665303230286
-0.052006978541612625 0.049120303243398666 0.02250010147690773
